# .PCD v0.7 - Point Cloud Data file format
VERSION 0.7
FIELDS x y z intensity ring time
SIZE 4 4 4 4 2 4
TYPE F F F F U F
COUNT 1 1 1 1 1 1
WIDTH 925
HEIGHT 1
VIEWPOINT 0 0 0 1 0 0 0
POINTS 925
DATA ascii
0.2592732 -2.0437505 0.18023807 6 10 -0.020641899
0.2624155 -2.0714176 -0.33070248 3 3 -0.020639595
0.25736344 -2.0343857 0.25178206 5 11 -0.020637291
0.26159886 -2.0678656 -0.25592566 2 4 -0.020634986
0.25698867 -2.0342729 0.32475799 6 12 -0.020632682
0.26383102 -2.0913725 -0.18442155 2 5 -0.020630378
0.25347871 -2.0121386 0.39421138 92 13 -0.020628074
1.0743444 -8.5402765 1.9872177 2 14 -0.020623468
0.2532312 -2.0158472 -0.035463288 4 7 -0.020621164
1.2828151 -10.226283 2.7615993 7 15 -0.02061886
0.14262824 -1.1483557 -0.31006524 5 0 -0.020598123
0.25154111 -2.0281496 0.035672721 8 8 -0.020595819
0.16718297 -1.3499075 -0.31403166 4 1 -0.020593515
0.24989918 -2.0177939 0.10655601 9 9 -0.020591211
0.20698552 -1.6736851 -0.32780987 3 2 -0.020588906
0.25273857 -2.0465767 0.1804124 15 10 -0.020586602
0.25191846 -2.0428684 -0.32600945 6 3 -0.020584298
0.24843244 -2.0174963 0.24958843 11 11 -0.020581994
0.25085855 -2.0371985 -0.25202581 9 4 -0.02057969
0.24903588 -2.0253105 0.32319364 10 12 -0.020577386
0.25349483 -2.0645502 -0.18198119 8 5 -0.020575084
0.24728286 -2.0168655 0.39497465 92 13 -0.02057278
1.2421026 -10.145391 2.3597367 5 14 -0.020568172
0.24751559 -2.0246158 -0.035602912 10 7 -0.020565867
1.0480427 -8.585166 2.3174658 2 15 -0.020563563
0.14020982 -1.1603298 -0.31317106 5 0 -0.020542827
0.24457476 -2.0269873 0.035637815 40 8 -0.020540522
0.16480346 -1.3678671 -0.31808078 4 1 -0.020538218
0.24118426 -2.0047731 0.10582332 27 9 -0.020535914
0.20348354 -1.6938897 -0.33162606 3 2 -0.02053361
0.24537811 -2.0456541 -0.32632235 11 3 -0.020529004
0.24244897 -2.0242219 0.25031966 40 11 -0.0205267
0.24374582 -2.0380616 -0.25202581 29 4 -0.020524396
0.24463552 -2.051574 -0.18076101 24 5 -0.020519787
0.24070512 -2.0216155 0.39573789 95 13 -0.020517483
1.20392 -10.126442 2.3543377 8 14 -0.020512875
0.23620385 -1.9897239 -0.034974623 49 7 -0.020510571
1.213632 -10.238616 2.7626348 7 15 -0.020508267
0.13415827 -1.145486 -0.30902994 5 0 -0.02048753
0.15888496 -1.3607197 -0.31628117 4 1 -0.020482924
0.19681971 -1.6907241 -0.33086282 3 2 -0.020478316
0.2368319 -2.0344377 0.1791922 32 10 -0.020476012
0.24130002 -2.0759718 -0.33101538 46 3 -0.020473707
0.23571473 -2.0310128 0.25105089 25 11 -0.020471403
0.23787379 -2.0527446 -0.253732 45 4 -0.020469099
0.23453647 -2.0270407 0.32319364 33 12 -0.020466795
0.23619984 -2.0445399 -0.18006375 82 5 -0.020464491
0.23329411 -2.0224841 0.39573789 92 13 -0.020462187
1.1739315 -10.192738 2.3687346 2 14 -0.020457579
1.1747762 -10.231479 2.7595289 11 15 -0.020452971
0.13148288 -1.1594068 -0.31265342 5 0 -0.020432236
0.23038438 -2.0346868 0.035742529 27 8 -0.020429932
0.15455334 -1.3671021 -0.31763089 4 1 -0.020427627
0.2287225 -2.0263338 0.10687003 15 9 -0.020425323
0.18871489 -1.6718922 -0.32704663 4 2 -0.020423019
0.22848122 -2.0273728 0.17849496 8 10 -0.020420715
0.23125963 -2.0552495 -0.32757381 25 3 -0.020418411
0.22959879 -2.043699 0.25251329 10 11 -0.020416107
0.22879955 -2.0397937 -0.25202581 17 4 -0.020413803
0.225127 -2.0102191 0.32037783 8 12 -0.020411499
0.22817458 -2.0374317 -0.17936651 18 5 -0.020409195
0.22579654 -2.0193839 0.39497465 90 13 -0.020406891
0.95350689 -8.5546103 1.9872177 2 14 -0.020402282
0.22404474 -2.0132635 -0.035358574 18 7 -0.020399978
1.1385479 -10.247236 2.7626348 11 15 -0.020397674
0.12595806 -1.1464165 -0.30902994 5 0 -0.020376939
0.22044612 -2.0096374 0.035288766 6 8 -0.020374635
0.14914382 -1.3618218 -0.31628117 4 1 -0.020372331
0.22273329 -2.0370471 0.10739339 5 9 -0.020370027
0.18330449 -1.6764439 -0.32780987 3 2 -0.020367723
0.91761231 -8.4057646 0.73977798 30 10 -0.020365419
0.22151574 -2.0324795 -0.3238194 8 3 -0.020363115
0.91583663 -8.4167395 1.0395457 12 11 -0.020360811
0.22146372 -2.0386062 -0.25178206 5 4 -0.020358507
0.22385947 -2.0640166 0.32882527 4 12 -0.020356202
0.22342432 -2.0600045 -0.18128395 5 5 -0.020353898
0.21853478 -2.0182078 0.39459303 82 13 -0.020351594
0.918621 -8.5113869 1.9764199 2 14 -0.020346986
0.21808714 -2.0239742 -0.035533097 4 7 -0.020344682
1.1023567 -10.247307 2.7615993 11 15 -0.02034238
0.12277265 -1.1545334 -0.31110048 5 0 -0.020321643
0.88897514 -8.373661 0.14698416 28 8 -0.020319339
0.14336227 -1.3526447 -0.31403166 4 1 -0.020317035
0.5744648 -5.4201622 0.28564969 18 9 -0.020314731
0.17621197 -1.6653595 -0.32552016 3 2 -0.020312427
0.8867988 -8.3950462 0.7385577 87 10 -0.020310123
0.21711308 -2.0587785 -0.3278867 5 3 -0.020307818
0.22617343 -2.1518974 -0.26567519 1 4 -0.02030321
0.88256675 -8.4253435 1.6466817 69 13 -0.0202963
0.89376122 -8.561059 1.9872177 2 14 -0.020291692
0.60090041 -5.755837 -0.10101452 46 7 -0.020289388
1.0683714 -10.250905 2.7615993 11 15 -0.020287083
0.12012497 -1.1684071 -0.31472397 5 0 -0.020266347
0.86283809 -8.392478 0.14726341 10 8 -0.020264043
0.1404676 -1.3686211 -0.31763089 4 1 -0.020261738
0.39411065 -3.8465567 0.20264484 8 9 -0.020259434
0.16879974 -1.6503398 -0.32246721 3 2 -0.02025713
0.86032337 -8.4258404 0.74099815 100 10 -0.020254826
0.21469902 -2.1027205 -0.33476979 3 3 -0.020252522
0.85912925 -8.4287024 1.0402768 100 11 -0.02025022
0.29338825 -2.8833468 -0.3558585 1 4 -0.020247916
0.85501832 -8.4321308 1.6474451 80 13 -0.020241003
0.84491771 -8.3762112 -0.14694926 100 7 -0.020234091
1.0329682 -10.258417 2.7626348 11 15 -0.020231787
0.11433768 -1.1495752 -0.3095476 5 0 -0.02021105
0.37913159 -3.8186409 0.066982336 5 8 -0.020208746
0.13472852 -1.3594068 -0.31538138 4 1 -0.020206442
0.38186094 -3.8598342 0.20327288 11 9 -0.020204138
0.16409898 -1.6587055 -0.32399368 3 2 -0.020201836
0.83159393 -8.4207153 0.74030089 96 10 -0.020199532
0.20832701 -2.1132865 -0.33633414 3 3 -0.020197228
0.8289246 -8.423749 1.0393019 100 11 -0.020194924
0.28254539 -2.876451 -0.35488355 1 4 -0.020192619
0.82560408 -8.4201603 1.3400177 112 12 -0.020190315
0.82634413 -8.4428787 1.6489714 78 13 -0.020185707
0.99752784 -10.265805 2.76367 11 15 -0.020176491
0.10903275 -1.1365062 -0.30592412 5 0 -0.020155756
0.36541882 -3.8159599 0.066912524 21 8 -0.020153452
0.12998229 -1.3598689 -0.31538138 4 1 -0.020151148
0.15942696 -1.6709944 -0.3262834 3 2 -0.020146539
0.20057482 -2.1100678 -0.33570841 2 3 -0.020141931
0.79932731 -8.424613 1.0390581 100 11 -0.020139627
0.27287757 -2.8813722 -0.35537103 1 4 -0.020137323
0.79602104 -8.4210234 1.3397049 99 12 -0.020135019
0.79613006 -8.4378939 1.6474451 78 13 -0.020130411
0.3612676 -3.8505006 -0.067505911 10 7 -0.020123499
0.96024483 -10.253838 2.7595289 11 15 -0.020121194
0.10648711 -1.1522691 -0.31006524 5 0 -0.020100459
0.77453935 -8.3970699 0.1471936 10 8 -0.020098155
0.12469883 -1.3544927 -0.31403166 4 1 -0.020095851
0.31676233 -3.4407079 0.18108243 8 9 -0.020093547
0.15251523 -1.6598107 -0.32399368 3 2 -0.020091243
0.35354957 -3.8550344 0.33868721 27 10 -0.020088939
0.19104753 -2.0871494 -0.331954 3 3 -0.020086635
0.76991582 -8.427352 1.0390581 100 11 -0.020084331
0.2642597 -2.8981225 -0.35732093 1 4 -0.020082027
0.76862943 -8.4295197 1.3406435 103 12 -0.020079723
0.38607052 -4.242197 -0.37267792 1 5 -0.020077419
0.76596189 -8.4328012 1.6459185 80 13 -0.020075114
0.75843996 -8.3824768 -0.14691436 72 7 -0.020068202
0.92623746 -10.256965 2.7595289 11 15 -0.020065898
0.10280637 -1.1564823 -0.31110048 5 0 -0.020045163
0.3065016 -3.4478765 0.06042023 3 8 -0.020042859
0.11900093 -1.3413111 -0.31088236 4 1 -0.020040555
0.30545503 -3.4497507 0.18150112 8 9 -0.020038251
0.14637479 -1.6564217 -0.32323048 3 2 -0.020035947
0.30928481 -3.5069406 0.3080084 23 10 -0.020033643
0.18516637 -2.0995779 -0.33383119 3 3 -0.020031339
0.74109501 -8.4199724 1.0378394 100 11 -0.020029034
0.25325835 -2.883163 -0.35537103 1 4 -0.02002673
0.73920101 -8.4321508 1.3406435 103 12 -0.020024426
0.34191355 -3.908087 -0.34321931 2 5 -0.020022122
0.73833537 -8.4392061 1.6466817 78 13 -0.020019818
0.89143026 -10.271684 2.7626348 11 15 -0.020010604
0.098476708 -1.1510425 -0.3095476 5 0 -0.019989867
0.29412448 -3.4449403 0.060350422 45 8 -0.019987563
0.11630354 -1.3650186 -0.31628117 5 1 -0.019985259
0.71604311 -8.4039755 0.44202951 100 9 -0.019982954
0.14088105 -1.6568979 -0.32323048 3 2 -0.01998065
0.29714817 -3.5019908 0.30748546 22 10 -0.019978346
0.17883657 -2.1120214 -0.33570841 2 3 -0.019976042
0.71220046 -8.428442 1.0385706 87 11 -0.019973738
0.24319258 -2.8840294 -0.35537103 1 4 -0.019971434
0.71090263 -8.4306192 1.3400177 100 12 -0.019969132
0.32761574 -3.893316 -0.34182483 22 5 -0.019966828
0.70936519 -8.4476023 1.6478267 76 13 -0.019964524
0.28644469 -3.4255211 -0.060001373 8 7 -0.019957611
0.8567214 -10.266882 2.7605641 11 15 -0.019955307
0.094774231 -1.1552299 -0.31058288 5 0 -0.01993457
0.6904785 -8.4164381 0.14740302 87 8 -0.019932266
0.11161728 -1.3634546 -0.31583127 4 1 -0.019929962
0.68718994 -8.4123964 0.44234356 100 9 -0.019927658
0.13509668 -1.6573795 -0.32323048 3 2 -0.019925356
0.28718373 -3.5308084 0.30992582 11 10 -0.01992305
0.17167164 -2.1106339 -0.33539551 3 3 -0.019920748
0.23362769 -2.88482 -0.35537103 1 4 -0.01991614
0.68147069 -8.4330492 1.3400177 102 12 -0.019913835
0.68213665 -8.459692 1.6497347 78 13 -0.019909227
0.82118571 -10.273663 2.7615993 11 15 -0.019900011
0.090287551 -1.1497759 -0.30902994 5 0 -0.019871235
0.65978217 -8.4209061 0.14743793 100 8 -0.019868931
0.10768235 -1.3774543 -0.3189806 4 1 -0.019866627
0.65650851 -8.4168491 0.44244823 100 9 -0.019864323
0.12961581 -1.6617557 -0.32399368 3 2 -0.019862019
0.27872175 -3.581449 0.31428361 5 10 -0.019859714
0.16347581 -2.1053405 -0.33445692 3 3 -0.01985741
0.26894221 -3.4714499 0.42751768 34 11 -0.019855106
0.22335832 -2.8896153 -0.3558585 1 4 -0.019852802
0.65086108 -8.4394293 1.3406435 103 12 -0.019850498
0.65082431 -8.4582195 1.6489714 80 13 -0.019845892
0.64178556 -8.3982315 -0.14701907 100 7 -0.019838979
0.78425944 -10.286234 2.7641876 14 15 -0.019836675
0.086706899 -1.1558634 -0.31058288 5 0 -0.019815939
0.63068193 -8.427146 0.14750774 100 8 -0.019813634
0.10258342 -1.3739351 -0.31808078 5 1 -0.01981133
0.62742066 -8.4230728 0.44265756 100 9 -0.019809026
0.12439771 -1.6700294 -0.32552016 3 2 -0.019806722
0.62560576 -8.418541 0.7385577 87 10 -0.019804418
0.15568787 -2.0999885 -0.33351833 3 3 -0.019802114
0.25843349 -3.494144 0.43019882 19 11 -0.019799812
0.21268627 -2.8824584 -0.35488355 2 4 -0.019797508
0.62139678 -8.4416504 1.3406435 102 12 -0.019795204
0.25523365 -3.4673386 -0.30417353 10 5 -0.019792899
0.62043369 -8.4486914 1.6466817 78 13 -0.019790595
0.61275691 -8.4044085 -0.14708889 100 7 -0.019783683
0.74820983 -10.286983 2.76367 19 15 -0.019781379
0.082533978 -1.1542321 -0.31006524 5 0 -0.019760642
0.60112047 -8.4273024 0.14747284 100 8 -0.019758338
0.097095102 -1.3645656 -0.31583127 5 1 -0.019756034
0.59801567 -8.4252119 0.44265756 100 9 -0.019753732
0.11828961 -1.6665368 -0.32475692 3 2 -0.019751428
0.59874946 -8.4564466 0.74169534 100 10 -0.019749124
0.14863463 -2.1044602 -0.33414406 3 3 -0.01974682
0.24832761 -3.5247273 0.43385491 9 11 -0.019744515
0.20150992 -2.8673415 -0.35293365 2 4 -0.019742211
0.59247947 -8.4516497 1.341895 102 12 -0.019739907
0.24368642 -3.4761581 -0.30487078 10 5 -0.019737603
0.59121215 -8.4547243 1.6474451 80 13 -0.019735299
0.58341706 -8.406496 -0.14708889 100 7 -0.019728387
0.71269572 -10.295314 2.765223 14 15 -0.019726083
0.079159714 -1.1641502 -0.31265342 5 0 -0.019705348
0.57210571 -8.4353342 0.14757755 100 8 -0.019703044
0.092462935 -1.3668405 -0.31628117 5 1 -0.01970074
0.56846786 -8.4252548 0.44255289 100 9 -0.019698435
0.11247155 -1.6669395 -0.32475692 3 2 -0.019696131
0.56949359 -8.4624605 0.74204391 100 10 -0.019693827
0.14102338 -2.1010242 -0.33351833 3 3 -0.019691523
0.23801136 -3.5552826 0.43751097 4 11 -0.019689219
0.19097072 -2.860105 -0.35195872 2 4 -0.019686915
0.56271231 -8.4497232 1.3412693 103 12 -0.019684611
0.57404584 -8.6199083 -0.75581461 6 5 -0.019682307
0.56247658 -8.4684896 1.6497347 78 13 -0.019680003
0.55314875 -8.3945141 -0.14684455 100 7 -0.01967309
0.67688167 -10.299666 2.7657404 11 15 -0.019670786
0.07447391 -1.1547803 -0.31006524 5 0 -0.019650051
0.54227209 -8.4312935 0.14747284 100 8 -0.019647747
0.087441705 -1.3632655 -0.31538138 5 1 -0.019645443
0.53905451 -8.4271889 0.44255289 100 9 -0.019643139
0.10602548 -1.6575257 -0.32284883 5 2 -0.019640835
0.53944403 -8.4564447 0.74134672 100 10 -0.019638531
0.13444073 -2.113332 -0.33539551 3 3 -0.019636227
0.18249021 -2.8845277 -0.35488355 1 4 -0.019631619
0.53296387 -8.4476948 1.3406435 100 12 -0.019629315
0.53328216 -8.4762802 1.6508795 76 13 -0.019624706
0.5240919 -8.4003859 -0.14691436 100 7 -0.019617794
0.64068604 -10.298109 2.7647052 11 15 -0.01961549
0.070442624 -1.1550332 -0.31006524 5 0 -0.019594755
0.51332438 -8.4411182 0.14761245 100 8 -0.019592451
0.082800388 -1.3655076 -0.31583127 4 1 -0.019590147
0.51047838 -8.4429741 0.44328558 100 9 -0.019587843
0.099646516 -1.6480873 -0.32094073 5 2 -0.019585539
0.50944245 -8.4503212 0.74064946 100 10 -0.019583235
0.12682615 -2.1098447 -0.33476979 3 3 -0.01958093
0.50855708 -8.4849386 1.0436891 100 11 -0.019578626
0.17289348 -2.8930733 -0.3558585 1 4 -0.019576322
0.50370842 -8.4534464 1.3412693 100 12 -0.019574018
0.50322622 -8.4702501 1.649353 76 13 -0.01956941
0.49547192 -8.4141417 -0.14712378 100 7 -0.0195625
0.6041674 -10.290641 2.7621171 11 15 -0.019560196
0.066188604 -1.1514146 -0.30902994 5 0 -0.019539459
0.48316848 -8.4308796 0.14740302 100 8 -0.019537155
0.078033499 -1.3657883 -0.31583127 4 1 -0.01953485
0.48100358 -8.4447041 0.44328558 100 9 -0.019532546
0.094562836 -1.6601855 -0.32323048 4 2 -0.019530242
0.48084557 -8.4679604 0.74204391 100 10 -0.019527938
0.11856767 -2.0944967 -0.33226684 3 3 -0.019525634
0.47748178 -8.4608974 1.0405205 92 11 -0.01952333
0.16212498 -2.8817675 -0.3543961 1 4 -0.019521028
0.47430772 -8.4571266 1.3415821 90 12 -0.019518724
0.2385269 -4.2530451 -0.37267792 1 5 -0.01951642
0.47365621 -8.4719553 1.649353 65 13 -0.019514116
0.46653917 -8.4238062 -0.14726341 100 7 -0.019507203
0.56866956 -10.300402 2.7641876 9 15 -0.019504899
0.062168982 -1.1516386 -0.30902994 5 0 -0.019484162
0.45309237 -8.4205341 0.1471936 31 8 -0.019481858
0.072743498 -1.3563226 -0.31358176 4 1 -0.019479554
0.45173711 -8.4503202 0.44349492 36 9 -0.01947725
0.08918649 -1.6683474 -0.32475692 3 2 -0.019474946
0.45170876 -8.4775457 0.74274123 21 10 -0.019472644
0.11104597 -2.0909529 -0.33164111 3 3 -0.01947034
0.44773474 -8.4585476 1.0400331 25 11 -0.019468036
0.15101917 -2.8624926 -0.35195872 1 4 -0.019465731
0.44519863 -8.4666204 1.3428336 42 12 -0.019463427
0.4445942 -8.4833593 1.6512611 24 13 -0.019458819
0.43733975 -8.4293776 -0.14733322 56 7 -0.019451907
0.53460491 -10.338981 2.7740226 2 15 -0.019449603
0.058635615 -1.1614957 -0.31161815 5 0 -0.019428866
0.42440057 -8.4360447 0.14743793 10 8 -0.019426564
0.068594173 -1.368246 -0.31628117 4 1 -0.01942426
0.42621207 -8.5016403 0.44611171 6 9 -0.019421956
0.082774535 -1.6568836 -0.32246721 3 2 -0.019419651
0.42676866 -8.5725975 0.75093383 4 10 -0.019417347
0.10315944 -2.0794899 -0.32976389 3 3 -0.019415043
0.14141652 -2.8709328 -0.35293365 1 4 -0.019410435
0.053946182 -1.1481851 -0.30799466 5 0 -0.019373572
0.068698131 -1.4621643 0.025550324 1 8 -0.019371267
0.063783117 -1.3626262 -0.31493148 4 1 -0.019368963
0.067174293 -1.4404557 0.075573131 1 9 -0.019366659
0.076261468 -1.6414734 -0.31941426 3 2 -0.019364355
0.067982838 -1.468811 0.12864187 1 10 -0.019362051
0.09644562 -2.0837669 -0.33038962 3 3 -0.019359747
0.066957459 -1.4688582 -0.12864187 1 5 -0.019350531
0.064630643 -1.4343262 -0.025061656 1 7 -0.019341314
0.049969792 -1.1444979 -0.30695942 5 0 -0.019318275
0.062725171 -1.442417 0.025201276 1 8 -0.019315971
0.059110727 -1.3647875 -0.31538138 4 1 -0.019313667
0.063867204 -1.4805894 0.077666566 1 9 -0.019311363
0.070479237 -1.6338717 -0.31788781 3 2 -0.019309059
0.062769584 -1.4610662 0.12794463 2 10 -0.019306755
0.063416488 -1.4821519 -0.23496459 1 3 -0.019304451
0.062031575 -1.4557368 0.17890421 1 11 -0.019302147
0.063629158 -1.4993802 -0.18426646 1 4 -0.019299842
0.063641034 -1.5058683 0.23871902 1 12 -0.019297538
0.063768499 -1.5088843 -0.1321281 1 5 -0.019295234
0.060595363 -1.4397541 0.28010762 3 13 -0.01929293
0.059892189 -1.4349723 0.33157787 2 14 -0.019288324
0.058461066 -1.4065713 -0.024572989 2 7 -0.01928602
0.060953837 -1.472742 0.39495787 1 15 -0.019283716
0.046517245 -1.1581773 -0.31058288 5 0 -0.019262979
0.057210356 -1.4306386 0.024991846 7 8 -0.019260675
0.05442369 -1.3669326 -0.31583127 4 1 -0.019258371
0.056167245 -1.4169412 0.074317068 12 9 -0.019256067
0.05808815 -1.4654002 -0.28506866 3 2 -0.019253762
0.056962147 -1.4433589 0.12637582 28 10 -0.019251458
0.056225836 -1.4310441 -0.22683001 2 3 -0.019249154
0.055398095 -1.416273 0.17402944 9 11 -0.01924685
0.056927491 -1.461905 -0.17963544 10 4 -0.019244546
0.055323541 -1.4271256 0.22620426 6 12 -0.019242242
0.057034865 -1.4712708 -0.12881619 9 5 -0.01923994
0.054812204 -1.420339 0.27629143 25 13 -0.019237636
0.054808501 -1.4332253 0.33112797 22 14 -0.019233027
0.054007217 -1.4187562 -0.024782417 19 7 -0.019230723
0.053398516 -1.4092405 0.3778758 13 15 -0.019228419
0.043040466 -1.173777 -0.31472397 5 0 -0.019207682
0.049439818 -1.361272 -0.31448159 4 1 -0.019203074
0.051767021 -1.4322405 -0.27858114 22 2 -0.019198466
0.051512994 -1.4391279 -0.22808148 19 3 -0.01919386
0.049606033 -1.3926516 0.17110457 33 11 -0.019191556
0.049785066 -1.4185597 0.27590984 51 13 -0.019182339
0.049467053 -1.4236699 0.32887843 31 14 -0.019177731
0.049076844 -1.4267946 0.38253456 43 15 -0.019173123
0.039455328 -1.1893665 -0.31886509 5 0 -0.019152386
0.044943634 -1.3692269 -0.31628117 4 1 -0.01914778
0.045998439 -1.408866 -0.27400175 47 2 -0.019143172
0.044999387 -1.4007525 0.17207953 50 11 -0.019136259
0.045609929 -1.4353746 0.22745575 50 12 -0.019131651
0.044833194 -1.4187248 0.27590984 42 13 -0.019127043
0.044253521 -1.4160429 0.32707885 38 14 -0.019122435
0.043542091 -1.4011102 -0.024468275 100 7 -0.019120131
0.044155899 -1.4288881 0.3830522 37 15 -0.019117827
0.035303533 -1.1894969 -0.31886509 5 0 -0.019097092
0.041636184 -1.4111708 0.024642797 100 8 -0.019094788
0.039935142 -1.3615839 -0.31448159 4 1 -0.019092483
0.0408605 -1.4014803 0.07347969 100 9 -0.019090179
0.040908616 -1.4031308 -0.27285689 57 2 -0.019087875
0.041267365 -1.4239607 0.12463271 93 10 -0.019085571
0.041066583 -1.4256308 -0.2258914 89 3 -0.019083267
0.040904906 -1.428681 0.17549187 67 11 -0.019080963
0.04054264 -1.4247197 -0.17500439 100 4 -0.019078659
0.039650023 -1.4019569 0.22213697 47 12 -0.019076355
0.040385783 -1.4279722 -0.12498133 100 5 -0.019074051
0.039825447 -1.4169102 0.27552822 37 13 -0.019071747
0.039148252 -1.4103447 0.32572913 34 14 -0.019067138
0.038265202 -1.387261 -0.024223939 100 7 -0.019064834
0.038691305 -1.4116534 0.37839344 32 15 -0.01906253
0.030342042 -1.1587138 -0.31058288 5 0 -0.019041795
0.036709983 -1.4113076 0.024642797 100 8 -0.019039491
0.035735857 -1.383144 -0.3194305 5 1 -0.019037187
0.036275718 -1.413594 0.074107721 100 9 -0.019034883
0.036413569 -1.4189658 -0.27590984 72 2 -0.019032579
0.036042534 -1.4141372 0.12376115 91 10 -0.019030275
0.03609008 -1.4257654 -0.2258914 100 3 -0.019027971
0.035418734 -1.4089705 0.17305449 47 11 -0.019025667
0.035618689 -1.4268368 -0.17524813 100 4 -0.019023363
0.034951806 -1.409986 0.22338845 57 12 -0.019021058
0.035499692 -1.4320883 -0.12532996 100 5 -0.019018754
0.034685988 -1.4091899 0.27400175 37 13 -0.01901645
0.034366772 -1.4163173 0.32707885 33 14 -0.019011842
0.033663284 -1.3973818 -0.024398465 100 7 -0.019009538
0.033578858 -1.4040548 0.37632293 35 15 -0.019007236
0.026472474 -1.1665381 -0.31265342 5 0 -0.018986499
0.031873375 -1.4154255 0.024712607 100 8 -0.018984195
0.030472049 -1.3637779 -0.31493148 5 1 -0.018981891
0.031252563 -1.4097186 0.073898375 100 9 -0.018979587
0.031590734 -1.4249725 -0.27705467 73 2 -0.018977283
0.031237619 -1.4202303 0.12428409 87 10 -0.018974978
0.030811153 -1.4120582 -0.22370131 99 3 -0.018972674
0.03058634 -1.4130547 0.17354195 59 11 -0.01897037
0.030723235 -1.4309217 -0.17573561 100 4 -0.018968066
0.029861551 -1.4021996 0.22213697 54 12 -0.018965762
0.029949049 -1.4063082 -0.12306391 100 5 -0.018963458
0.029559458 -1.3994883 0.27209365 38 13 -0.018961156
0.029382179 -1.4144803 0.32662892 31 14 -0.018956548
0.028785268 -1.3974907 -0.024398465 100 7 -0.018954244
0.028835502 -1.4118891 0.37839344 35 15 -0.018951939
0.022585735 -1.1762809 -0.31524161 6 0 -0.018931203
0.027046673 -1.4215262 0.024817321 100 8 -0.018928898
0.025784975 -1.3677727 -0.31583127 5 1 -0.018926594
0.026256904 -1.4058253 0.073689036 100 9 -0.01892429
0.026616419 -1.4250741 -0.27705467 54 2 -0.018921986
0.026206139 -1.4163464 0.12393546 87 10 -0.018919682
0.026026888 -1.4200575 -0.22495279 99 3 -0.018917378
0.025509508 -1.4052138 0.172567 57 11 -0.018915076
0.025371153 -1.4111726 -0.17329822 100 4 -0.018912772
0.025142729 -1.4121705 0.22370131 47 12 -0.018910468
0.025146464 -1.4123803 -0.12358684 100 5 -0.018908164
0.024812702 -1.4074346 0.2736201 33 13 -0.018905859
0.024377331 -1.4106774 0.32572913 32 14 -0.018901251
0.024043873 -1.4055803 -0.024538083 100 7 -0.018898947
0.02393941 -1.4139129 0.37891111 30 15 -0.018896643
0.018388687 -1.1705576 -0.3136887 5 0 -0.018875906
0.0218047 -1.4036168 0.024503179 100 8 -0.018873602
0.021010527 -1.3678542 -0.31583127 5 1 -0.018871298
0.021197829 -1.3959233 0.073165677 100 9 -0.018868994
0.021552352 -1.4192693 -0.27590984 52 2 -0.018866692
0.021172257 -1.4104528 0.12341253 27 10 -0.018864388
0.020952547 -1.412239 -0.22370131 71 3 -0.018862084
0.020604203 -1.4052943 0.172567 27 11 -0.018859779
0.020243926 -1.3973584 -0.17159206 66 4 -0.018857475
0.019873898 -1.3885477 0.21994688 32 12 -0.018855171
0.020244656 -1.4144517 -0.12376115 99 5 -0.018852867
0.1204248 -8.5177097 1.6558405 58 13 -0.018850563
0.018919352 -1.3896595 -0.024258846 100 7 -0.018843651
0.019159688 -1.4255779 0.38201693 11 15 -0.018841347
0.014160924 -1.1590245 -0.31058288 5 0 -0.018820612
0.017001485 -1.4116826 0.024642797 24 8 -0.018818308
0.01600422 -1.3484333 -0.31133226 4 1 -0.018816004
0.099328808 -8.493762 0.44516969 72 9 -0.018813699
0.016712962 -1.4291515 -0.2778179 10 2 -0.018811395
0.098021008 -8.5089312 0.74448436 100 10 -0.018809091
0.015977927 -1.408353 -0.22307558 44 3 -0.018806787
0.095100984 -8.5135298 1.0453953 92 11 -0.018804483
0.09204185 -8.505475 1.3472137 73 12 -0.018799875
0.090963192 -8.5435991 1.6608016 95 13 -0.018795267
0.087752052 -8.521389 1.9674219 30 14 -0.018790659
0.085585348 -8.4542799 -0.14757755 72 7 -0.018788354
0.084945232 -8.5383615 2.2879603 26 15 -0.01878605
0.0099970456 -1.1455445 -0.30695942 5 0 -0.018765315
0.072630018 -8.4923964 0.14824075 100 8 -0.018763011
0.011493243 -1.371865 -0.3167311 4 1 -0.018760707
0.071061224 -8.4820623 0.44454166 100 9 -0.018758403
0.013189669 -1.6078514 -0.31254515 4 2 -0.018756099
0.068317436 -8.5092211 0.74448436 100 10 -0.018753795
0.065474875 -8.5257196 1.0468577 100 11 -0.018749187
0.063895144 -8.5136347 1.3484653 99 12 -0.018744579
0.06098615 -8.5222692 1.6566037 78 13 -0.01873997
0.059588525 -8.5352745 1.9705712 100 14 -0.018735362
0.057617206 -8.4645147 -0.14775208 100 7 -0.018733058
0.056682482 -8.5463238 2.290031 80 15 -0.018730754
0.0062296772 -1.1513667 -0.3085123 5 0 -0.018710019
0.04444655 -8.4885912 0.14817093 100 8 -0.018707715
0.0068649515 -1.3563058 -0.31313187 4 1 -0.018705411
0.04300373 -8.4962311 0.44527435 100 9 -0.018703107
0.0080495924 -1.6471508 -0.32017753 3 2 -0.018700803
0.040137712 -8.5173702 0.74518156 100 10 -0.018698499
0.0094032614 -2.0721488 -0.32819954 2 3 -0.018696195
0.037193224 -8.5239058 1.0466141 100 11 -0.01869389
0.012472807 -2.8585057 -0.35098374 2 4 -0.018691586
0.035688072 -8.5197258 1.3494039 103 12 -0.018689282
0.017099906 -4.2596941 -0.37267792 1 5 -0.018686978
0.032738686 -8.526351 1.6573671 80 13 -0.018684674
0.031305309 -8.5412712 1.971921 90 14 -0.018680068
0.02956219 -8.4686584 -0.14782189 100 7 -0.018677764
0.028341208 -8.5464649 2.290031 84 15 -0.01867546
0.0024155753 -1.1533129 -0.30902994 5 0 -0.018654723
0.01631983 -8.5006905 0.14838037 100 8 -0.018652419
0.0023773925 -1.3621674 -0.31448159 4 1 -0.018650115
0.014825164 -8.4943295 0.44516969 100 9 -0.01864781
0.0026183736 -1.6668009 -0.32399368 3 2 -0.018645506
0.011906457 -8.5274191 0.74605316 100 10 -0.018643202
0.0025654242 -2.099824 -0.33257973 2 3 -0.018640898
0.0089087067 -8.5061159 1.0444204 87 11 -0.018638594
0.0030187727 -2.8823526 -0.3539086 1 4 -0.01863629
0.0074299504 -8.5138712 1.3484653 66 12 -0.018633988
0.0029739935 -4.2597275 -0.37267792 1 5 -0.018631684
0.0044689169 -8.5362291 1.6592751 76 13 -0.01862938
0.0029792297 -8.5335321 1.9701214 13 14 -0.018624771
0.001480714 -8.4807091 -0.14803131 100 7 -0.018622467
-3.7417101e-07 -8.5600348 2.2936544 14 15 -0.018620163
-0.0014137261 -1.1571783 -0.31006524 5 0 -0.018599426
-0.011870655 -8.502697 0.14841527 14 8 -0.018597122
-0.0021518641 -1.3699627 -0.31628117 4 1 -0.018594818
-0.013380091 -8.5183001 0.44642577 24 9 -0.018592514
-0.0028884576 -1.6550208 -0.321704 3 2 -0.018590212
-0.016413955 -8.5493279 0.74797058 26 10 -0.018587906
-0.004397688 -2.0998211 -0.33257973 3 3 -0.018585604
-0.019402554 -8.5517559 1.0500263 15 11 -0.0185833
-0.0064585106 -2.8466151 -0.34952128 1 4 -0.018580996
-0.023847522 -8.5401239 1.6600385 75 13 -0.018574083
-0.031598568 -10.649818 2.458715 2 14 -0.018569475
-0.018168023 -5.7830911 -0.10094472 49 7 -0.018567171
-0.034266654 -10.333419 2.7688463 7 15 -0.018564867
-0.0058471803 -1.1552325 -0.3095476 5 0 -0.018541336
-0.030520825 -5.8290324 0.10174754 100 8 -0.018539032
-0.007338319 -1.3563033 -0.31313187 4 1 -0.018536728
-0.032526907 -5.8239164 0.30522332 83 9 -0.018534424
-0.0092103621 -1.6491079 -0.32055911 3 2 -0.01853212
-0.049526725 -8.5990105 0.75232834 17 10 -0.018529816
-0.012507271 -2.1076901 -0.33383119 3 3 -0.018527512
-0.052688465 -8.6250648 1.0590447 10 11 -0.018525207
-0.017786022 -2.8306861 -0.3475714 1 4 -0.018522903
-0.05547639 -8.5907345 1.3606671 7 12 -0.018520599
-0.037774537 -5.8495336 -0.51177853 3 5 -0.018518295
-0.056640062 -8.5399694 1.6600385 73 13 -0.018515993
-0.074349269 -10.649606 2.458715 2 14 -0.018511385
-0.04151139 -5.8009677 -0.10125886 100 7 -0.018509081
-0.075690582 -10.32547 2.7667756 7 15 -0.018506777
-0.0098466491 -1.1513416 -0.3085123 5 0 -0.01848604
-0.050850473 -5.8268909 0.10171262 60 8 -0.018483736
-0.012211299 -1.3718588 -0.3167311 3 1 -0.018481432
-0.015162807 -1.6706607 -0.32475692 3 2 -0.018476823
-0.079745539 -8.6206999 0.75424576 17 10 -0.018474519
-0.019808864 -2.1017077 -0.33289257 3 3 -0.018472215
-0.082870677 -8.6327686 1.0600196 10 11 -0.018469913
-0.02801582 -2.8663366 -0.35195872 2 4 -0.018467609
-0.085543185 -8.5983896 1.3619186 8 12 -0.018465305
-0.086468861 -8.5416822 1.6604201 78 13 -0.018460697
-0.11152317 -10.649282 2.458715 2 14 -0.018456088
-0.1117318 -10.325143 2.7667756 9 15 -0.01845148
-0.013958472 -1.159027 -0.31058288 5 0 -0.018430743
-0.10480509 -8.5780544 0.14974165 28 8 -0.018428439
-0.016951809 -1.3679106 -0.31583127 4 1 -0.018426135
-0.071574397 -5.77563 0.30271122 7 9 -0.018423833
-0.020846434 -1.658819 -0.32246721 3 2 -0.018421529
-0.1097346 -8.612401 0.75354856 17 10 -0.018419225
-0.027068345 -2.0957003 -0.331954 3 3 -0.018416921
-0.1128225 -8.6185322 1.0583134 10 11 -0.018414617
-0.038231753 -2.8821003 -0.3539086 2 4 -0.018412312
-0.11423872 -8.6118851 1.3641087 8 12 -0.018410008
-0.11631134 -8.543292 1.6608016 76 13 -0.0184054
-0.14869446 -10.648828 2.458715 2 14 -0.018400792
-0.10595618 -7.5881047 -0.13246377 34 7 -0.018398488
-0.14608023 -10.332443 2.7688463 7 15 -0.018396184
-0.018004179 -1.1589712 -0.31058288 5 0 -0.018375449
-0.13340597 -8.587656 0.14991617 31 8 -0.018373145
-0.02127366 -1.3542074 -0.31268197 4 1 -0.018370841
-0.092114784 -5.7993088 0.30396727 10 9 -0.018368537
-0.026762605 -1.6665881 -0.32399368 3 2 -0.018366233
-0.13986276 -8.6159496 0.75389719 17 10 -0.018363928
-0.034178179 -2.1054745 -0.33351833 3 3 -0.018361624
-0.14169437 -8.6359749 1.0605072 7 11 -0.01835932
-0.047130797 -2.8422616 -0.34903383 2 4 -0.018357016
-0.14443174 -8.6193342 1.3653603 7 12 -0.018354712
-0.072112352 -4.2591181 -0.37267792 1 5 -0.018352408
-0.14470807 -8.5467854 1.6615648 76 13 -0.018350104
-0.18441087 -10.671658 2.464114 2 14 -0.018345496
-0.13310628 -7.6256771 -0.13312696 4 7 -0.018343192
-0.18241899 -10.347322 2.7729874 7 15 -0.018340888
-0.022065744 -1.1704942 -0.3136887 5 0 -0.018320153
-0.16380036 -8.6091309 0.15030013 28 8 -0.018317848
-0.026150113 -1.3619184 -0.31448159 4 1 -0.018315544
-0.11278405 -5.8209181 0.30511865 18 9 -0.01831324
-0.032061134 -1.6547129 -0.321704 3 2 -0.018310936
-0.16862755 -8.6253996 0.75476873 17 10 -0.018308632
-0.041449342 -2.101392 -0.33289257 3 3 -0.018306328
-0.17176096 -8.6314573 1.0600196 10 11 -0.018304024
-0.057051931 -2.8420799 -0.34903383 2 4 -0.01830172
-0.17455715 -8.6207523 1.3656731 7 12 -0.018299416
-0.086235359 -4.2588553 -0.37267792 1 5 -0.018297112
-0.17490208 -8.5638933 1.6649995 78 13 -0.018294808
-0.22093132 -10.635878 2.4560156 2 14 -0.018290199
-0.15021785 -7.1713343 -0.12520356 18 7 -0.018287895
-0.21853706 -10.346622 2.7729874 7 15 -0.018285591
-0.025806336 -1.1549591 -0.3095476 5 0 -0.018264856
-0.19389609 -8.6105051 0.15033503 28 8 -0.018262552
-0.030948024 -1.3637671 -0.31493148 4 1 -0.018260248
-0.13319294 -5.824482 0.30532798 50 9 -0.018257944
-0.037836812 -1.6545908 -0.321704 3 2 -0.01825564
-0.1988268 -8.6287413 0.75511736 17 10 -0.018253336
-0.048692673 -2.0972848 -0.33226684 3 3 -0.018251032
-0.2019814 -8.6347752 1.0605072 7 11 -0.018248728
-0.066878498 -2.8378942 -0.34854636 2 4 -0.018246423
-0.20460252 -8.6181164 1.3653603 7 12 -0.018244119
-0.099399276 -4.1868229 -0.36640272 1 5 -0.018241815
-0.2047938 -8.5632305 1.6649995 80 13 -0.018239511
-0.25881404 -10.666213 2.4632142 2 14 -0.018234905
-0.20974275 -8.5821304 -0.14984636 31 7 -0.018232601
-0.25455737 -10.341932 2.7719519 7 15 -0.018230297
-0.029438468 -1.1394123 -0.30540648 5 0 -0.01820956
-0.22389843 -8.6077776 0.15030013 24 8 -0.018207256
-0.035759483 -1.3655988 -0.31538138 4 1 -0.018204952
-0.15389125 -5.8379574 0.3060607 54 9 -0.018202648
-0.043663766 -1.6564113 -0.32208559 3 2 -0.018200343
-0.22873434 -8.6200275 0.75442004 17 10 -0.018198039
-0.056329794 -2.1089504 -0.33414406 3 3 -0.018195735
-0.23228143 -8.6399698 1.0612383 10 11 -0.018193431
-0.07775078 -2.8733618 -0.35293365 2 4 -0.018191129
-0.23495223 -8.627223 1.3669246 7 12 -0.018188825
-0.11561707 -4.218297 -0.36919171 1 5 -0.018186521
-0.23457645 -8.5585384 1.6642361 78 13 -0.018184217
-0.29582721 -10.657452 2.4614143 2 14 -0.018179609
-0.24008979 -8.5953388 -0.15009069 38 7 -0.018177304
-0.29033056 -10.329396 2.7688463 7 15 -0.018175
-0.033842336 -1.1470208 -0.30747706 5 0 -0.018154263
-0.25370812 -8.5989475 0.15016051 24 8 -0.018151959
-0.040236913 -1.3557262 -0.31313187 4 1 -0.018149655
-0.17450784 -5.8453708 0.30647939 65 9 -0.018147351
-0.049675822 -1.6542778 -0.321704 3 2 -0.018145047
-0.26080713 -8.6350641 0.75581461 17 10 -0.018142745
-0.063399352 -2.0870106 -0.33070248 2 3 -0.018140441
-0.26286128 -8.6529951 1.0629444 7 11 -0.018138137
-0.08753781 -2.8651364 -0.35195872 2 4 -0.018135833
-0.26530728 -8.6342478 1.368176 6 12 -0.018133529
-0.13157187 -4.2576962 -0.37267792 1 5 -0.018131224
-0.26588264 -8.5556583 1.6638545 76 13 -0.01812892
-0.33574393 -10.683565 2.4677131 2 14 -0.018124312
-0.27027932 -8.6004438 -0.1501954 34 7 -0.018122008
-0.32675025 -10.339904 2.7719519 7 15 -0.018119704
-0.037909728 -1.1488264 -0.30799466 5 0 -0.018098967
-0.28529063 -8.5999584 0.1501954 17 8 -0.018096665
-0.045140699 -1.3536221 -0.31268197 4 1 -0.018094361
-0.1958635 -5.8426952 0.3063747 54 9 -0.018092057
-0.055186763 -1.6462457 -0.32017753 3 2 -0.018089753
-0.29088169 -8.6321096 0.75564027 13 10 -0.018087449
-0.071352519 -2.106519 -0.33383119 2 3 -0.018085144
-0.2943033 -8.6440392 1.0619696 10 11 -0.01808284
-0.097766943 -2.8568604 -0.35098374 1 4 -0.018080536
-0.29695278 -8.6332169 1.368176 8 12 -0.018078232
-0.14643331 -4.2572107 -0.37267792 1 5 -0.018075928
-0.29621992 -8.5684128 1.6665258 80 13 -0.018073624
-0.37208262 -10.655063 2.4614143 2 14 -0.018069016
-0.30179983 -8.5993948 -0.1501954 11 7 -0.018066712
-0.36505446 -10.350221 2.7750578 7 15 -0.018064408
-0.042412855 -1.1622012 -0.31161815 5 0 -0.018043673
-0.16435854 -4.4823041 0.078291491 5 8 -0.018041369
-0.049793731 -1.3515087 -0.31223205 4 1 -0.018039064
-0.1649082 -4.4548311 0.23362774 22 9 -0.01803676
-0.061368704 -1.6578145 -0.32246721 3 2 -0.018034456
-0.32108489 -8.6330328 0.75581461 17 10 -0.018032152
-0.078779042 -2.1082313 -0.33414406 3 3 -0.018029848
-0.32477397 -8.6508932 1.0629444 7 11 -0.018027544
-0.10773839 -2.8565018 -0.35098374 1 4 -0.01802524
-0.32731116 -8.6380501 1.3691146 6 12 -0.018022936
-0.1593315 -4.2049088 -0.36814582 1 5 -0.018020632
-0.32642746 -8.5751753 1.6680523 80 13 -0.018018328
-0.40927374 -10.653699 2.4614143 2 14 -0.018013719
-0.17234677 -4.4659948 -0.078012258 13 7 -0.018011415
-0.40110672 -10.346953 2.7745402 7 15 -0.018009111
-0.045697547 -1.1427428 -0.30644175 5 0 -0.017988376
-0.17968231 -4.4737115 0.078151874 70 8 -0.017986072
-0.054982394 -1.3630097 -0.31493148 4 1 -0.017983768
-0.18040474 -4.4722204 0.23456979 62 9 -0.017981464
-0.066519439 -1.641897 -0.31941426 3 2 -0.01797916
-0.35210803 -8.6537571 0.75773197 13 10 -0.017976856
-0.085815094 -2.1000483 -0.33289257 3 3 -0.017974552
-0.35456154 -8.6397905 1.0617259 10 11 -0.017972248
-0.1172104 -2.8561289 -0.35098374 1 4 -0.017969944
-0.35587311 -8.634943 1.3688017 7 12 -0.017967639
-0.18101121 -4.3735356 -0.38296232 3 5 -0.017965335
-0.3566837 -8.5818291 1.6695787 80 13 -0.017963031
-0.44460085 -10.652283 2.4614143 2 14 -0.017958425
-0.18715577 -4.4653993 -0.078012258 66 7 -0.017956121
-0.43647146 -10.370658 2.7812696 7 15 -0.017953817
-0.049570274 -1.1445152 -0.30695942 5 0 -0.01793308
-0.19512497 -4.4870753 0.078396209 59 8 -0.017930776
-0.059672054 -1.3667136 -0.31583127 5 1 -0.017928472
-0.19558281 -4.479579 0.23498847 30 9 -0.017926168
-0.072307579 -1.6495129 -0.32094073 3 2 -0.017923864
-0.38027772 -8.6405983 0.75668615 17 10 -0.01792156
-0.092865907 -2.1017256 -0.33320546 2 3 -0.017919255
-0.38435408 -8.6643476 1.0648944 7 11 -0.017916951
-0.12720898 -2.8676236 -0.35244617 1 4 -0.017914647
-0.38485554 -8.6416092 1.3700532 6 12 -0.017912343
-0.1969374 -4.4047575 -0.38575131 5 5 -0.017910041
-0.38514045 -8.5805988 1.6695787 78 13 -0.017907737
-0.48079902 -10.670218 2.4659135 2 14 -0.017903129
-0.20223327 -4.470747 -0.078116976 43 7 -0.017900825
-0.47033399 -10.357574 2.7781637 7 15 -0.01789852
-0.053365394 -1.1443446 -0.30695942 5 0 -0.017877784
-0.39709976 -8.4834185 0.14824075 66 8 -0.01787548
-0.064020887 -1.3626151 -0.31493148 5 1 -0.017873175
-0.27632374 -5.8594375 0.30742142 58 9 -0.017870871
-0.077592254 -1.6453419 -0.32017753 3 2 -0.017868567
-0.40977705 -8.6572018 0.758255 13 10 -0.017866263
-0.098522663 -2.0737817 -0.32882527 3 3 -0.017863961
-0.41270512 -8.6550941 1.0639194 7 11 -0.017861657
-0.13721816 -2.867162 -0.35244617 1 4 -0.017859353
-0.41530365 -8.6461325 1.3709919 8 12 -0.017857049
-0.20703465 -4.2945886 -0.37616417 1 5 -0.017854745
-0.41340286 -8.5753527 1.6688155 80 13 -0.01785244
-0.51766431 -10.660689 2.464114 2 14 -0.017847832
-0.41406736 -8.4966211 -0.14848508 56 7 -0.017845528
-0.50658041 -10.357799 2.7786813 7 15 -0.017843224
-0.058044605 -1.1537882 -0.3095476 5 0 -0.017822487
-0.43113106 -8.5698566 0.14977656 21 8 -0.017820183
-0.068089172 -1.3487594 -0.31178215 4 1 -0.017817881
-0.2965734 -5.8544483 0.30721208 61 9 -0.017815577
-0.08402092 -1.6528894 -0.321704 3 2 -0.017813273
-0.44201213 -8.6655903 0.75912648 13 10 -0.017810969
-0.10672868 -2.0852439 -0.33070248 2 3 -0.017808665
-0.44372752 -8.6694613 1.0658693 7 11 -0.01780636
-0.14661442 -2.8547704 -0.35098374 2 4 -0.017804056
-0.4463959 -8.662385 1.3738077 6 12 -0.017801752
-0.21729225 -4.202312 -0.36814582 1 5 -0.017799448
-0.4458487 -8.5933857 1.6726319 80 13 -0.017797144
-0.5549047 -10.62369 2.4560156 2 14 -0.017792536
-0.44977364 -8.6109486 -0.15050955 31 7 -0.017790232
-0.54303646 -10.361755 2.7802343 7 15 -0.017787928
-0.06248682 -1.1612949 -0.31161815 5 0 -0.017767193
-0.46609452 -8.6341124 0.15092842 21 8 -0.017764889
-0.07324297 -1.3523926 -0.31268197 4 1 -0.017762585
-0.31781241 -5.8493333 0.30700275 61 9 -0.017760281
-0.089577094 -1.6486653 -0.32094073 3 2 -0.017757976
-0.47301626 -8.6779203 0.76034665 13 10 -0.017755672
-0.11530099 -2.1085274 -0.33445692 2 3 -0.017753368
-0.47495514 -8.6578655 1.0646507 10 11 -0.017751064
-0.15707709 -2.854214 -0.35098374 1 4 -0.01774876
-0.47814226 -8.6606913 1.3738077 7 12 -0.017746456
-0.2348149 -4.2532516 -0.37267792 1 5 -0.017744152
-0.47605884 -8.5956984 1.673395 82 13 -0.017741848
-0.58786321 -10.547752 2.4389195 2 14 -0.01773724
-0.48077232 -8.5992584 -0.15033503 27 7 -0.017734936
-0.58165973 -10.371269 2.7833402 7 15 -0.017732631
-0.066098012 -1.1533549 -0.3095476 5 0 -0.017711896
-0.45090055 -7.8438544 0.137141 10 8 -0.017709592
-0.07897272 -1.3696383 -0.3167311 5 1 -0.017707288
-0.33845928 -5.8521762 0.30721208 58 9 -0.017704984
-0.095104799 -1.6444225 -0.32017753 3 2 -0.01770268
-0.50284475 -8.6682606 0.75964946 13 10 -0.017700376
-0.12243076 -2.1041682 -0.33383119 2 3 -0.017698072
-0.50575238 -8.6660633 1.0658693 7 11 -0.017695768
-0.16634294 -2.8417583 -0.34952128 2 4 -0.017693464
-0.50744492 -8.6431942 1.3713048 5 12 -0.01769116
-0.24966022 -4.2524061 -0.37267792 1 5 -0.017688856
-0.50698406 -8.6096621 1.6764479 80 13 -0.017686551
-0.61684257 -10.413353 2.4083259 2 14 -0.017681943
-0.51149929 -8.6095066 -0.15054446 27 7 -0.017679639
-0.61877704 -10.384603 2.7874813 7 15 -0.017677337
-0.069420017 -1.1415473 -0.30644175 5 0 -0.0176566
-0.4755992 -7.7983212 0.1363731 18 8 -0.017654296
-0.082801625 -1.3537934 -0.31313187 4 1 -0.017651992
-0.35822994 -5.8570027 0.30752611 54 9 -0.017649688
-0.10084417 -1.6440805 -0.32017753 4 2 -0.017647384
-0.53285414 -8.6624765 0.75930083 13 10 -0.01764508
-0.12928873 -2.0958416 -0.33257973 2 3 -0.017642776
-0.53673518 -8.6761332 1.0673318 7 11 -0.017640471
-0.1782279 -2.8728607 -0.35342112 1 4 -0.017638167
-0.53781563 -8.6690655 1.3756849 7 12 -0.017635863
-0.2612859 -4.1998062 -0.36814582 1 5 -0.017633559
-0.53654552 -8.6000032 1.6749215 80 13 -0.017631257
-0.66758716 -10.640636 2.4614143 2 14 -0.017626649
-0.49659678 -7.9152298 -0.13843249 16 7 -0.017624345
-0.65175498 -10.359357 2.7812696 7 15 -0.017622041
-0.073652364 -1.1451539 -0.30747706 5 0 -0.017601304
-0.48926395 -7.6071219 0.13305715 28 8 -0.017599
-0.087039411 -1.349622 -0.31223205 4 1 -0.017596696
-0.37944531 -5.8676748 0.30815417 50 9 -0.017594391
-0.10632845 -1.6398003 -0.31941426 3 2 -0.017592087
-0.56386542 -8.6724911 0.76034665 13 10 -0.017589783
-0.13508469 -2.0776603 -0.32976389 3 3 -0.017587479
-0.56511521 -8.6683636 1.0666007 7 11 -0.017585177
-0.18930763 -2.8960242 -0.35634598 1 4 -0.017582873
-0.56859112 -8.6750193 1.3769363 5 12 -0.017580569
-0.27280825 -4.1511545 -0.36396238 1 5 -0.017578265
-0.5650605 -8.598177 1.6749215 80 13 -0.017575961
-0.70338345 -10.646142 2.4632142 2 14 -0.017571352
-0.50611472 -7.640089 -0.13365053 36 7 -0.017569048
-0.68842429 -10.364729 2.7833402 7 15 -0.017566744
-0.077970877 -1.152613 -0.3095476 5 0 -0.017546007
-0.5120253 -7.5495043 0.13207981 17 8 -0.017543703
-0.092146754 -1.3551427 -0.31358176 4 1 -0.017541399
-0.39992517 -5.8663149 0.30815417 50 9 -0.017539095
-0.11229983 -1.6472735 -0.32094073 3 2 -0.017536793
-0.59289235 -8.6745501 0.76069534 13 10 -0.017534489
-0.1417959 -2.0692933 -0.32851243 3 3 -0.017532185
-0.59577841 -8.6722784 1.0673318 7 11 -0.017529881
-0.19641478 -2.8517768 -0.35098374 1 4 -0.017527577
-0.60009301 -8.6907196 1.3797522 7 12 -0.017525272
-0.28729692 -4.150177 -0.36396238 1 5 -0.017522968
-0.59615523 -8.6118202 1.6779745 78 13 -0.017520664
-0.7391876 -10.624181 2.458715 5 14 -0.017516056
-0.53765076 -7.7080956 -0.1348722 4 7 -0.017513752
-0.72352201 -10.346847 2.7791991 7 15 -0.017511448
-0.082607262 -1.1581004 -0.31110048 5 0 -0.017490713
-0.51418805 -7.2085843 0.12614599 13 8 -0.017488409
-0.096737407 -1.352869 -0.31313187 4 1 -0.017486105
-0.42011455 -5.8608985 0.3079448 50 9 -0.017483801
-0.11721099 -1.6311853 -0.31788781 3 2 -0.017481497
-0.62511075 -8.6782799 0.76121825 13 10 -0.017479192
-0.14937931 -2.0687597 -0.32851243 3 3 -0.017476888
-0.6276195 -8.691926 1.0700129 7 11 -0.017474584
-0.20636821 -2.851074 -0.35098374 1 4 -0.01747228
-0.62942517 -8.6747789 1.3775622 6 12 -0.017469976
-0.30900869 -4.2485056 -0.37267792 1 5 -0.017467672
-0.62800074 -8.6134939 1.6787376 86 13 -0.017465368
-0.77271175 -10.547546 2.4416187 5 14 -0.01746076
-0.42765185 -5.8374648 -0.10216638 24 7 -0.017458456
-0.76133168 -10.367377 2.7854106 7 15 -0.017456152
-0.086649306 -1.157805 -0.31110048 5 0 -0.017435417
-0.53656757 -7.1528111 0.12520356 57 8 -0.017433112
-0.10169529 -1.3525053 -0.31313187 4 1 -0.017430808
-0.44189262 -5.8633027 0.30815417 47 9 -0.017428504
-0.12290403 -1.6307662 -0.31788781 3 2 -0.0174262
-0.65525097 -8.674058 0.76104391 13 10 -0.017423896
-0.15868753 -2.0958018 -0.33289257 3 3 -0.017421592
-0.65902126 -8.6836281 1.0692817 7 11 -0.017419288
-0.21681657 -2.8502984 -0.35098374 1 4 -0.017416984
-0.66181642 -8.6802921 1.3788135 7 12 -0.01741468
-0.31777835 -4.1679363 -0.36570549 1 5 -0.017412376
-0.65866232 -8.6190796 1.6802641 86 13 -0.017410072
-0.81847519 -10.661366 2.4686129 2 14 -0.017405463
-0.54891825 -7.1338229 -0.12488942 36 7 -0.017403159
-0.089332215 -1.1401619 -0.30644175 5 0 -0.01738012
-0.56043577 -7.136939 0.12495923 13 8 -0.017377816
-0.10748611 -1.3657411 -0.31628117 4 1 -0.017375512
-0.46345615 -5.8756623 0.30888686 45 9 -0.017373208
-0.12952201 -1.6420702 -0.32017753 3 2 -0.017370904
-0.68521035 -8.6677465 0.76069534 13 10 -0.0173686
-0.16397409 -2.0696354 -0.32882527 2 3 -0.017366296
-0.69074422 -8.6990852 1.0714754 7 11 -0.017363992
-0.22613452 -2.841609 -0.35000879 1 4 -0.017361687
-0.6927408 -8.6858063 1.3800651 5 12 -0.017359383
-0.33866134 -4.2462449 -0.37267792 1 5 -0.017357079
-0.68874472 -8.6167278 1.6802641 86 13 -0.017354775
-0.85755694 -10.681753 2.4740117 2 14 -0.017350169
-0.69473737 -8.6347771 -0.15120766 15 7 -0.017347865
-0.83767325 -10.388623 2.7926576 2 15 -0.017345561
-0.094572581 -1.1552465 -0.31058288 5 0 -0.017324824
-0.11193346 -1.3614734 -0.31538138 4 1 -0.017320216
-0.48429134 -5.8779893 0.30909619 22 9 -0.017317912
-0.13589799 -1.6494346 -0.321704 3 2 -0.017315608
-0.17315224 -2.0926745 -0.33257973 2 3 -0.017310999
-0.72110468 -8.6966209 1.0714754 7 11 -0.017308695
-0.23605262 -2.8408024 -0.35000879 2 4 -0.017306391
-0.72387451 -8.6931782 1.3816295 6 12 -0.017304089
-0.34521443 -4.145761 -0.36396238 1 5 -0.017301785
-0.71947074 -8.6220961 1.6817905 86 13 -0.017299481
-0.89158374 -10.639856 2.4650135 5 14 -0.017294873
-0.098275788 -1.1510596 -0.3095476 5 0 -0.017269528
-0.33870432 -3.9589326 0.069355868 5 8 -0.017267223
-0.11535361 -1.3455414 -0.31178215 4 1 -0.017264919
-0.33932939 -3.9500108 0.20777377 8 9 -0.017262615
-0.14165461 -1.6489501 -0.321704 3 2 -0.017260313
-0.17773984 -2.0605679 -0.32757381 2 3 -0.017255705
-0.75145638 -8.6940508 1.0714754 7 11 -0.017253401
-0.2445969 -2.8241396 -0.34805888 2 4 -0.017251097
-0.75438595 -8.6925659 1.3819423 5 12 -0.017248793
-0.34538609 -3.9797819 -0.34949452 3 5 -0.017246488
-0.74990451 -8.6234436 1.6825539 84 13 -0.017244184
-0.92939538 -10.644445 2.4668133 2 14 -0.017239576
-0.34787285 -3.9762037 -0.069670007 19 7 -0.017237272
-0.90882814 -10.367126 2.7885165 4 15 -0.017234968
-0.10155074 -1.1468966 -0.3085123 5 0 -0.017222643
-0.35255346 -3.973784 0.069635101 50 8 -0.017220339
-0.11923498 -1.3412902 -0.31088236 4 1 -0.017218035
-0.35191444 -3.9509146 0.20787844 22 9 -0.017215731
-0.1443958 -1.6211199 -0.31636134 3 2 -0.017213427
-0.35386962 -3.9650347 0.34827435 5 10 -0.017211122
-0.18491627 -2.0678694 -0.32882527 2 3 -0.017208818
-0.7791205 -8.6956015 1.0719628 7 11 -0.017206514
-0.2538231 -2.8273115 -0.34854636 2 4 -0.01720421
-0.78169107 -8.6901531 1.3819423 6 12 -0.017201906
-0.36074337 -4.0104275 -0.35228351 21 5 -0.017199602
-0.77822518 -8.6347332 1.6852252 82 13 -0.0171973
-0.96564144 -10.672525 2.4740117 2 14 -0.017192692
-0.36000136 -3.9711082 -0.069600195 25 7 -0.017190387
-0.94209248 -10.371915 2.7905872 4 15 -0.017188083
-0.10555343 -1.146535 -0.3085123 5 0 -0.017167347
-0.36734083 -3.9824853 0.069809623 31 8 -0.017165042
-0.12570955 -1.3602705 -0.31538138 4 1 -0.017162738
-0.36754507 -3.9695499 0.20892516 24 9 -0.017160434
-0.14987272 -1.6186512 -0.31597972 3 2 -0.01715813
-0.36439544 -3.9280653 0.34513673 1 10 -0.017155826
-0.19432691 -2.0908144 -0.33257973 2 3 -0.017153522
-0.81204706 -8.7205 1.0753752 7 11 -0.01715122
-0.26369044 -2.8264084 -0.34854636 2 4 -0.017148916
-0.81238747 -8.6913052 1.382568 6 12 -0.017146612
-0.37399817 -4.0012093 -0.35158628 13 5 -0.017144307
-0.80909365 -8.6397829 1.6867516 82 13 -0.017142003
-1.0017943 -10.65745 2.4713123 2 14 -0.017137395
-0.37292358 -3.959873 -0.069425672 21 7 -0.017135091
-0.98083222 -10.395489 2.7978339 2 15 -0.017132787
-0.10918748 -1.1423135 -0.30747706 5 0 -0.01711205
-0.52191782 -5.4502339 0.09556938 20 8 -0.017109746
-0.12971248 -1.3520641 -0.31358176 4 1 -0.017107442
-0.56560206 -5.884768 0.30982888 33 9 -0.01710514
-0.15683679 -1.6317977 -0.31865105 3 2 -0.017102836
-0.37772289 -3.9228029 0.3447881 1 10 -0.017100532
-0.19707166 -2.0429332 -0.32507086 2 3 -0.017098228
-0.84171778 -8.7097092 1.0744002 5 11 -0.017095923
-0.27470273 -2.8373258 -0.35000879 1 4 -0.017093619
-0.84462917 -8.7080784 1.3856968 5 12 -0.017091315
-0.39777294 -4.101016 -0.36047614 1 5 -0.017089011
-0.83962625 -8.6408148 1.6875149 82 13 -0.017086707
-1.039748 -10.661646 2.4731119 2 14 -0.017082099
-0.84601355 -8.6594467 -0.15187085 15 7 -0.017079795
-1.0144778 -10.365086 2.7905872 2 15 -0.017077491
-0.11317413 -1.1419255 -0.30747706 5 0 -0.017056756
-0.54251957 -5.4642982 0.095848612 22 8 -0.017054452
-0.13385285 -1.3457855 -0.31223205 4 1 -0.017052148
-0.5863378 -5.8847461 0.30993357 30 9 -0.017049843
-0.16369961 -1.6429619 -0.32094073 3 2 -0.017047539
-0.39279905 -3.9353385 0.3460083 4 10 -0.017045235
-0.20773959 -2.0776134 -0.33070248 2 3 -0.017042931
-0.87211543 -8.7067184 1.0744002 5 11 -0.017040627
-0.28103778 -2.8007965 -0.3456215 2 4 -0.017038323
-0.87581033 -8.7129383 1.3869481 6 12 -0.017036019
-0.41607067 -4.1392503 -0.36396238 1 5 -0.017033715
-0.86939001 -8.6339235 1.6867516 82 13 -0.017031411
-1.0761729 -10.650195 2.4713123 2 14 -0.017026803
-0.87543017 -8.6484823 -0.15173122 11 7 -0.017024498
-1.0565008 -10.419141 2.8061163 2 15 -0.017022194
-0.11735676 -1.1434451 -0.30799466 5 0 -0.017001459
-0.56261295 -5.4723172 0.096023142 22 8 -0.016999155
-0.13874924 -1.3472487 -0.31268197 4 1 -0.016996851
-0.60708165 -5.8846502 0.31003824 15 9 -0.016994547
-0.16822506 -1.630663 -0.31865105 3 2 -0.016992243
-0.40878648 -3.9557436 0.34792572 13 10 -0.016989939
-0.21499036 -2.0768754 -0.33070248 2 3 -0.016987635
-0.90332144 -8.7115183 1.0753752 7 11 -0.016985331
-0.29368395 -2.827441 -0.34903383 2 4 -0.016983027
-0.90519589 -8.7000046 1.3853837 4 12 -0.016980723
-0.44082573 -4.2368569 -0.37267792 1 5 -0.016978418
-0.90115088 -8.6464567 1.6898044 80 13 -0.016976114
-1.1149657 -10.66188 2.4749115 2 14 -0.016971506
-0.9081139 -8.66924 -0.15215008 19 7 -0.016969202
-1.0896374 -10.384648 2.7978339 2 15 -0.016966898
-0.12236717 -1.1526338 -0.31058288 5 0 -0.016946163
-0.58171159 -5.4703202 0.096023142 22 8 -0.016943859
-0.14283183 -1.3409427 -0.31133226 4 1 -0.016941555
-0.62634736 -5.8705788 0.30941018 7 9 -0.016939251
-0.17349942 -1.6261616 -0.31788781 3 2 -0.016936947
-0.42788473 -4.0038204 0.35228351 7 10 -0.016934643
-0.22392102 -2.0918255 -0.33320546 2 3 -0.016932338
-0.9349938 -8.7201548 1.0768377 5 11 -0.016930034
