# .PCD v0.7 - Point Cloud Data file format
VERSION 0.7
FIELDS x y z intensity ring time
SIZE 4 4 4 4 2 4
TYPE F F F F U F
COUNT 1 1 1 1 1 1
WIDTH 954
HEIGHT 1
VIEWPOINT 0 0 0 1 0 0 0
POINTS 954
DATA ascii
0.77839696 -1.1462369 -0.3198804 3 1 -0.095634997
1.4425849 -2.1250916 0.13460809 13 9 -0.095632695
0.953803 -1.4050603 -0.33009958 3 2 -0.095630392
1.4577161 -2.1481886 0.22712786 10 10 -0.095628083
1.2441863 -1.8342054 -0.35103899 3 3 -0.095625781
1.4471737 -2.1342554 0.31661656 11 11 -0.095623478
1.4512565 -2.1410809 -0.31759155 12 4 -0.095621176
1.5113723 -2.2306099 0.42675328 15 12 -0.095618866
1.4640391 -2.1607516 -0.22834805 10 5 -0.095616564
3.3700409 -4.9756584 1.1681327 14 13 -0.095614262
3.3707087 -4.9803877 1.3883979 22 14 -0.09560965
1.4421211 -2.1316063 -0.044922493 13 7 -0.095607348
3.377651 -4.9944005 1.6155485 16 15 -0.095605046
0.66004968 -0.9785639 -0.31627688 5 0 -0.095584311
1.4454786 -2.1438172 0.045131925 21 8 -0.095582008
0.7787478 -1.1554108 -0.32168001 3 1 -0.095579699
1.434042 -2.1284578 0.13450342 15 9 -0.095577396
0.95547444 -1.4181503 -0.3323893 3 2 -0.095575094
1.4468697 -2.1483061 0.22660492 14 10 -0.095572792
1.2355696 -1.8352598 -0.35041323 3 3 -0.095570482
1.4419317 -2.1425879 0.31710407 12 11 -0.09556818
1.4437737 -2.1461339 -0.31759155 4 4 -0.095565878
1.510191 -2.2457073 0.4286305 19 12 -0.095563576
1.4487051 -2.1542757 -0.22712786 5 5 -0.095561266
3.3822243 -5.031384 1.1784364 16 13 -0.095558964
3.3761218 -5.026094 1.3978459 22 14 -0.095554359
1.4313275 -2.1316469 -0.044817779 13 7 -0.095552057
3.3752706 -5.0286169 1.6227955 16 15 -0.095549747
0.65018183 -0.97122997 -0.31317106 5 0 -0.095551014
1.4290894 -2.1355543 0.044852685 4 8 -0.095548712
0.77254295 -1.1548827 -0.32078022 4 1 -0.095546409
1.4380808 -2.1498024 0.13555014 4 9 -0.0955441
0.94833577 -1.4182128 -0.33162606 3 2 -0.095541798
1.433826 -2.1450615 0.22573337 4 10 -0.095539495
1.2148888 -1.8182095 -0.34634593 3 3 -0.095537193
1.431136 -2.1426558 0.31637284 5 11 -0.095534883
1.4542899 -2.1773212 -0.32149133 2 4 -0.095532581
1.5235764 -2.2819171 0.43457499 22 12 -0.095530279
1.4444946 -2.1642909 -0.22765081 2 5 -0.095527977
3.3809853 -5.0676565 1.1841607 16 13 -0.095525667
3.3864679 -5.0777941 1.4090934 22 14 -0.095521063
1.4164863 -2.1247346 -0.044573449 2 7 -0.09551876
3.3778596 -5.0687184 1.632113 20 15 -0.095516451
0.64695746 -0.97338074 -0.31317106 5 0 -0.095495716
1.8314472 -2.7565496 0.057767466 7 8 -0.095493414
0.7708652 -1.1606848 -0.32168001 4 1 -0.095491111
1.4607784 -2.1994808 0.13837628 2 9 -0.095488809
0.94797105 -1.4278922 -0.33315253 3 2 -0.095486499
1.4421283 -2.1730454 0.22817372 2 10 -0.095484197
1.2001168 -1.8090596 -0.34384301 2 3 -0.095481895
1.4909455 -2.2483072 0.33124092 3 11 -0.095479593
1.6686741 -2.5163174 -0.37072656 1 4 -0.095477283
1.5400122 -2.323179 0.44145811 15 12 -0.095474981
1.8566166 -2.8018525 -0.29406345 12 5 -0.095472679
3.3858447 -5.1115756 1.1917931 14 13 -0.095470376
3.3954313 -5.1279922 1.419891 22 14 -0.095465764
1.8398777 -2.779752 -0.058186322 39 7 -0.095463462
3.3908803 -5.1250038 1.6466069 18 15 -0.09546116
0.64372611 -0.97552073 -0.31317106 5 0 -0.095440425
1.8465199 -2.7993312 0.058535371 7 8 -0.095438115
0.762721 -1.1567271 -0.3198804 4 1 -0.095435813
2.5412614 -3.8554897 0.24200147 8 9 -0.095433511
0.94539171 -1.4343065 -0.33391577 3 2 -0.095431209
2.1923826 -3.3274496 0.34862295 6 10 -0.095428899
1.1941112 -1.8130293 -0.34384301 2 3 -0.095426597
1.6373969 -2.4870191 0.36560807 4 11 -0.095424294
1.6576977 -2.5188105 -0.37023908 1 4 -0.095421992
1.5590355 -2.3697975 0.44927984 13 12 -0.095419683
1.8516952 -2.8146522 -0.29476073 12 5 -0.09541738
3.3926077 -5.1588626 1.2001886 14 13 -0.095415078
3.3924932 -5.1626134 1.4261897 22 14 -0.095410474
3.7174168 -5.6592255 -0.1181877 23 7 -0.095408164
3.4026594 -5.1820245 1.6611006 16 15 -0.095405862
0.64772564 -0.98907477 -0.31679454 5 0 -0.095385127
0.75761151 -1.1577518 -0.3194305 4 1 -0.095380515
2.5584016 -3.9111366 0.24493231 18 9 -0.095378213
0.92748278 -1.4178821 -0.32933635 3 2 -0.09537591
2.1862063 -3.3434198 0.34949452 6 10 -0.095373608
1.183452 -1.8105724 -0.34259152 2 3 -0.095371298
1.6373919 -2.5060139 0.36755794 4 11 -0.095368996
1.6271851 -2.4913416 -0.36536431 1 4 -0.095366694
1.5691123 -2.4033444 0.45459861 10 12 -0.095364392
3.4003308 -5.2101321 1.2093475 14 13 -0.09535978
3.3978708 -5.2103348 1.4360875 22 14 -0.095355175
3.7271247 -5.7173972 -0.11913013 31 7 -0.095352873
3.4088082 -5.2310972 1.6730064 16 15 -0.095350564
0.63690007 -0.97999102 -0.31317106 5 0 -0.095329829
2.5677276 -3.9524429 0.082270645 16 8 -0.095327526
0.75993371 -1.1701955 -0.32212991 4 1 -0.095325224
2.5632207 -3.9485221 0.24671172 20 9 -0.095322914
0.92680365 -1.4276978 -0.33086282 3 2 -0.095320612
2.1615078 -3.3309748 0.34740278 5 10 -0.09531831
1.1803497 -1.8196644 -0.34353012 3 3 -0.095316008
1.6286345 -2.511714 0.36755794 3 11 -0.095313706
1.6163193 -2.4936748 -0.36487687 1 4 -0.095311396
1.5671586 -2.4187536 0.45647582 10 12 -0.095309094
3.8275917 -5.9075079 -0.61584246 5 5 -0.095306791
3.4077373 -5.261517 1.2185063 14 13 -0.095304489
3.4008384 -5.2548842 1.4450855 22 14 -0.095299877
3.7277818 -5.7622733 -0.11979332 31 7 -0.095297575
3.4062634 -5.2672973 1.680771 18 15 -0.095295273
0.63138127 -0.97896123 -0.31213579 4 0 -0.09527453
2.5680015 -3.9832308 0.082724407 18 8 -0.095272228
0.75267762 -1.1679268 -0.32078022 3 1 -0.095269926
2.5678101 -3.9859889 0.24849114 21 9 -0.095267624
0.92394072 -1.4342251 -0.33162606 3 2 -0.095265321
2.1584971 -3.3519008 0.34879729 6 10 -0.095263012
1.1707832 -1.8187903 -0.34259152 3 3 -0.09526071
1.6101894 -2.5023594 0.36536431 2 11 -0.095258407
1.6097527 -2.5026405 -0.36536431 1 4 -0.095256105
1.5587059 -2.4242094 0.45647582 8 12 -0.095253795
3.4105806 -5.3064113 1.2261386 14 13 -0.095249191
3.4088016 -5.3077159 1.4563332 22 14 -0.095244579
3.7389739 -5.8240509 -0.12080556 31 7 -0.095242277
3.4108105 -5.3149238 1.6921589 16 15 -0.095239975
0.63420862 -0.99092191 -0.31524161 5 0 -0.09521924
2.5680912 -4.0140686 0.08317817 18 8 -0.095216937
0.75384581 -1.1787555 -0.32302973 4 1 -0.095214628
2.5710933 -4.0218525 0.25016591 19 9 -0.095212325
0.91892874 -1.4374415 -0.33162606 3 2 -0.095210023
2.1467836 -3.3594148 0.34879729 9 10 -0.095207721
1.1676173 -1.8278602 -0.34353012 3 3 -0.095205411
1.5629842 -2.4477336 0.35658973 2 11 -0.095203109
1.5967349 -2.5015514 -0.36438939 1 4 -0.095200807
1.555547 -2.4379618 0.45804018 8 12 -0.095198505
3.4173746 -5.3580103 1.2352976 14 13 -0.095193893
3.4153898 -5.3590226 1.4671308 19 14 -0.095189288
3.7444079 -5.8775434 -0.12164328 31 7 -0.095186979
3.4181795 -5.3675351 1.7050999 16 15 -0.095184676
0.63471407 -0.99976349 -0.31731215 5 0 -0.095163941
2.5701408 -4.0483313 0.083701737 22 8 -0.095161639
0.74346137 -1.1715075 -0.32033029 4 1 -0.095159337
2.5634577 -4.0409222 0.25079393 19 9 -0.095157027
0.91785955 -1.4474319 -0.33315253 3 2 -0.095154725
2.1408567 -3.3773572 0.34984317 9 10 -0.095152423
1.1566809 -1.8254533 -0.34227866 3 3 -0.095150121
1.4864309 -2.3458588 0.34099045 1 11 -0.095147811
1.5901173 -2.510464 -0.36487687 1 4 -0.095145509
1.5459707 -2.4417078 0.45772728 6 12 -0.095143206
3.4187064 -5.4036813 1.2429299 14 13 -0.095138595
3.4186339 -5.4077435 1.4770286 22 14 -0.09513399
3.7484457 -5.9294538 -0.12244608 32 7 -0.095131688
3.4262552 -5.4218941 1.7185585 16 15 -0.095129386
0.62813115 -0.99706936 -0.31575924 4 0 -0.095108643
2.5691383 -4.0797219 0.0841555 20 8 -0.095106341
0.73397183 -1.1659786 -0.31808078 4 1 -0.095104039
2.5592673 -4.0671949 0.25184065 19 9 -0.095101736
0.90652817 -1.4406571 -0.33086282 3 2 -0.095099427
1.62835 -2.5887806 0.26756814 1 10 -0.095097125
1.1555591 -1.8378412 -0.34384301 2 3 -0.095094822
1.4735976 -2.3445683 0.3400155 2 11 -0.09509252
1.5618964 -2.4860194 -0.36048955 1 4 -0.09509021
1.5286062 -2.433975 0.45522434 5 12 -0.095087908
3.4227874 -5.4521618 1.2513254 14 13 -0.095083304
3.4173408 -5.4477077 1.484677 19 14 -0.095078692
3.7564335 -5.9905896 -0.12342342 32 7 -0.09507639
3.4299583 -5.4720635 1.7304642 20 15 -0.095074087
0.62055087 -0.99270338 -0.3136887 4 0 -0.095053352
2.5771351 -4.1242781 0.08488851 22 8 -0.095051043
0.73918879 -1.1834089 -0.32212991 4 1 -0.095048741
2.5619791 -4.10321 0.25351539 20 9 -0.095046438
0.90565288 -1.4504739 -0.3323893 3 2 -0.095044136
1.547569 -2.4795158 0.25571495 3 10 -0.095041826
1.1564564 -1.853595 -0.3460331 3 3 -0.095039524
1.4738084 -2.3631728 0.34196541 2 11 -0.095037222
1.5616108 -2.5049326 -0.36243945 1 4 -0.09503492
1.519056 -2.4376199 0.4549115 4 12 -0.095032617
3.4276099 -5.5024037 1.2601026 13 13 -0.095028006
3.4322867 -5.5141993 1.4995238 19 14 -0.095023401
3.7492328 -6.0257378 -0.12387718 10 7 -0.095021091
3.4567492 -5.5578232 1.753758 30 15 -0.095018789
0.61810017 -0.9965052 -0.31420633 4 0 -0.094998054
2.567992 -4.1417456 0.085063025 18 8 -0.094995752
0.73813319 -1.1909511 -0.32347962 4 1 -0.094993442
2.559932 -4.1303573 0.25466678 20 9 -0.09499114
0.90472007 -1.4603021 -0.33391577 3 2 -0.094988838
1.5347081 -2.4781272 0.2550177 2 10 -0.094986536
1.1343825 -1.8324268 -0.34134007 3 3 -0.094984233
1.4759963 -2.3851833 0.34440279 3 11 -0.094981924
1.5637412 -2.5269775 -0.36487687 1 4 -0.094979621
3.4272077 -5.5404663 1.0318419 3 12 -0.094977319
3.4310911 -5.5510745 1.2684983 13 13 -0.094972707
3.4385657 -5.5653386 1.5103214 19 14 -0.094968103
2.5828254 -4.181951 -0.085796036 6 7 -0.094965801
3.4717901 -5.6235013 1.77084 18 15 -0.094963491
0.61175382 -0.9936142 -0.31265342 4 0 -0.094942756
2.5668206 -4.1706758 0.08548189 18 8 -0.094940454
0.72703212 -1.1817737 -0.32033029 4 1 -0.094938152
2.5744779 -4.1847534 0.25749293 20 9 -0.094935849
0.89575881 -1.4566048 -0.3323893 3 2 -0.09493354
2.092 -3.4031591 0.34949452 9 10 -0.094931237
1.130368 -1.8395447 -0.34196579 2 3 -0.094928935
1.4805462 -2.4103625 0.34732765 3 11 -0.094926633
1.5595087 -2.5389152 -0.36585179 1 4 -0.094924323
3.4336224 -5.5922027 1.0393507 5 12 -0.094922021
3.4373047 -5.6025839 1.277657 13 13 -0.094917417
3.4465799 -5.6199026 1.5220188 19 14 -0.094912805
2.5846205 -4.2160649 -0.086319603 18 7 -0.094910502
3.8074174 -6.2131419 1.9525309 28 15 -0.0949082
0.61047018 -0.99893421 -0.3136887 5 0 -0.094887465
2.5675702 -4.2030549 0.085970551 17 8 -0.094885156
0.71904677 -1.1775254 -0.31853068 4 1 -0.094882853
2.5629764 -4.1988287 0.25780693 20 9 -0.094880551
0.89680439 -1.4697782 -0.33467901 3 2 -0.094878249
2.085892 -3.418581 0.35036606 9 10 -0.094875939
1.1304334 -1.8534015 -0.34384301 2 3 -0.094873637
1.4725451 -2.4152586 0.34732765 2 11 -0.094871335
1.5361737 -2.520612 -0.36243945 1 4 -0.094869033
3.4438848 -5.6530766 1.0484239 6 12 -0.094866723
3.4483516 -5.6648583 1.2891057 13 13 -0.094862118
3.4472013 -5.6651945 1.5310168 19 14 -0.094857506
3.8002751 -6.2478971 -0.12764689 33 7 -0.094855204
3.8188272 -6.2808666 1.969613 28 15 -0.094852902
0.61781949 -1.019338 -0.31938273 5 0 -0.094832167
3.8049076 -6.2801752 0.12817048 21 8 -0.094829865
0.71472603 -1.180153 -0.31853068 4 1 -0.094827555
3.7970479 -6.2721405 0.38425064 37 9 -0.094825253
0.87514853 -1.4461808 -0.32857311 3 2 -0.094822951
2.0692225 -3.419385 0.34966883 9 10 -0.094820648
1.1277225 -1.8642931 -0.34509447 2 3 -0.094818339
1.4883342 -2.4614086 0.3531774 2 11 -0.094816037
1.5392472 -2.5466115 -0.36536431 1 4 -0.094813734
3.4425519 -5.6977849 1.0543684 6 12 -0.094811432
3.4539478 -5.7211571 1.2990277 13 13 -0.09480682
3.4475589 -5.7128291 1.5404649 19 14 -0.094802216
3.8021395 -6.3028789 -0.12848462 33 7 -0.094799913
3.8267057 -6.3461061 1.9856598 30 15 -0.094797604
0.60611713 -1.0083497 -0.31524161 5 0 -0.094776869
3.8117316 -6.3437867 0.12918271 14 8 -0.094774567
0.72042966 -1.1994704 -0.32302973 4 1 -0.094772264
3.8038476 -6.3356733 0.38728613 37 9 -0.094769955
0.88121122 -1.467742 -0.33277091 3 2 -0.094767652
2.0484738 -3.4132798 0.34827435 9 10 -0.09476535
1.1269791 -1.8785776 -0.34697169 2 3 -0.094763048
1.490533 -2.4855738 0.3558585 3 11 -0.094760738
1.5299031 -2.5522361 -0.36536431 1 4 -0.094758436
3.4460127 -5.7510314 1.0618773 8 12 -0.094756134
3.4611936 -5.7786536 1.3093314 13 13 -0.094751529
3.4576204 -5.7772627 1.5544118 22 14 -0.094746917
3.7954395 -6.3442287 -0.1290431 33 7 -0.094744615
3.826225 -6.3982234 1.9975655 28 15 -0.094742313
0.60160428 -1.0088 -0.31472397 4 0 -0.094721571
1.8307868 -3.071173 0.062409807 3 8 -0.094719268
0.7172358 -1.2036519 -0.32347962 4 1 -0.094716966
3.8062391 -6.3900948 0.38979825 33 9 -0.094714664
0.86804509 -1.4573153 -0.32971796 3 2 -0.094712362
2.0334888 -3.4152739 0.34775141 9 10 -0.094710052
1.1163734 -1.87571 -0.3457202 2 3 -0.09470775
1.4889523 -2.5027037 0.35756469 3 11 -0.094705448
1.5250432 -2.5643859 -0.36633927 1 4 -0.094703145
3.4491332 -5.8020792 1.0690732 5 12 -0.094700836
3.4620626 -5.8261433 1.3173454 13 13 -0.094696231
3.4662862 -5.8378906 1.567459 19 14 -0.094691619
3.7314248 -6.2869334 -0.12761199 63 7 -0.094689317
3.7693672 -6.3533897 1.9794481 45 15 -0.094687015
0.5980792 -1.0108938 -0.31472397 4 0 -0.09466628
1.8261627 -3.0878718 0.062619232 5 8 -0.094663978
0.70707971 -1.1960831 -0.32078022 4 1 -0.094661668
3.7128632 -6.2806115 0.38236654 73 9 -0.094659366
0.87094319 -1.4738581 -0.33277091 3 2 -0.094657063
2.022568 -3.4240665 0.34792572 9 10 -0.094654761
1.1017843 -1.8659877 -0.34321725 2 3 -0.094652452
1.4943334 -2.5318191 0.36097702 2 11 -0.094650149
1.5266216 -2.5865242 -0.36877668 1 4 -0.094647847
3.4720321 -5.8849416 1.0822138 6 12 -0.094645545
3.7195148 -6.3069291 -0.64059472 5 5 -0.094643235
3.4656324 -5.8787823 1.3265042 13 13 -0.094640933
3.4736202 -5.8946834 1.5796063 19 14 -0.094636329
3.6872122 -6.259644 -0.12680918 82 7 -0.094634019
3.714952 -6.3092542 1.9618485 67 15 -0.094631717
0.59863627 -1.0195353 -0.31679454 5 0 -0.094610982
1.8422302 -3.1387503 0.063526757 8 8 -0.094608679
0.69916505 -1.191698 -0.3189806 4 1 -0.094606377
3.676856 -6.2670493 0.38079646 94 9 -0.094604068
0.87300313 -1.4885927 -0.33544225 3 2 -0.094601765
2.0132179 -3.4341924 0.34827435 9 10 -0.094599463
1.0856034 -1.8525877 -0.34008855 2 3 -0.094597161
1.4929525 -2.5487506 0.36268318 5 11 -0.094594851
1.5120157 -2.5812953 -0.36731425 1 4 -0.094592549
3.475455 -5.9356298 1.0894097 8 12 -0.094590247
3.6985795 -6.3192291 -0.64059472 5 5 -0.094587944
3.4768519 -5.9427738 1.3383343 14 13 -0.094585635
3.4786482 -5.948225 1.5908539 19 14 -0.09458103
3.6959586 -6.3248749 1.9628838 78 15 -0.094576418
0.59622461 -1.0231839 -0.31731215 5 0 -0.094555683
1.8418765 -3.1621213 0.063875809 12 8 -0.094553381
0.69717056 -1.1973779 -0.3198804 4 1 -0.094551079
3.6479247 -6.2677622 0.38006377 94 9 -0.094548777
0.86016142 -1.4779053 -0.3323893 3 2 -0.094546467
2.0068281 -3.4494603 0.34914589 10 10 -0.094544165
1.0913708 -1.8766692 -0.34384301 2 3 -0.094541863
1.4994568 -2.5794303 0.36633927 7 11 -0.09453956
1.4890332 -2.5625284 -0.36390188 1 4 -0.094537251
3.4686043 -5.9716392 1.0937898 8 12 -0.094534948
3.4866996 -6.0052052 1.3497829 14 13 -0.094530344
3.486223 -6.0092139 1.6039009 19 14 -0.094525732
1.8438277 -3.1794908 -0.064155042 22 7 -0.09452343
3.6641693 -6.3210235 1.9577073 71 15 -0.094521128
0.58394825 -1.0102061 -0.31265342 5 0 -0.094500393
1.8358297 -3.1771889 0.064050332 10 8 -0.094498083
0.69688535 -1.2065542 -0.32168001 4 1 -0.094495781
3.6320155 -6.2908359 0.38069177 84 9 -0.094493479
0.85303396 -1.4774983 -0.33162606 3 2 -0.094491176
1.9858117 -3.4409139 0.3475771 8 10 -0.094488867
1.0848132 -1.8804673 -0.34384301 2 3 -0.094486564
1.4993687 -2.6001258 0.36853293 6 11 -0.094484262
1.4582696 -2.5298743 -0.35853964 1 4 -0.09448196
3.4743659 -6.0299239 1.1022373 9 12 -0.09447965
1.8531049 -3.21615 -0.32474229 11 5 -0.094477348
3.4941318 -6.0666766 1.3608499 14 13 -0.094475046
3.4904978 -6.0652609 1.6155984 19 14 -0.094470441
3.6046112 -6.2660809 -0.1261809 41 7 -0.094468132
3.6353419 -6.322052 1.9540838 60 15 -0.094465829
0.58137941 -1.0139142 -0.31317106 5 0 -0.094445094
1.8257227 -3.1853125 0.064085238 13 8 -0.094442792
0.6946069 -1.2123612 -0.3225798 4 1 -0.094440483
3.6001089 -6.2861438 0.37964505 94 9 -0.09443818
0.85274994 -1.4889851 -0.33353412 3 2 -0.094435878
1.9668599 -3.4357209 0.34635693 8 10 -0.094433576
1.0743183 -1.8773842 -0.34259152 2 3 -0.094431266
1.491269 -2.6070669 0.36877668 7 11 -0.094428964
1.4730779 -2.576308 -0.36438939 1 4 -0.094426662
3.480742 -6.0900354 1.1109977 7 12 -0.09442436
1.8304328 -3.203891 -0.32282487 11 5 -0.094422057
3.4972811 -6.1214523 1.3703903 14 13 -0.094419748
3.4973221 -6.1264882 1.6286457 19 14 -0.094415143
3.5807347 -6.2751508 -0.12611109 75 7 -0.094412841
3.6122944 -6.3330255 1.9535662 90 15 -0.094410531
0.57956892 -1.0193971 -0.31420633 5 0 -0.094389796
3.5748265 -6.2877216 0.12625071 70 8 -0.094387494
0.68844503 -1.2113899 -0.32168001 4 1 -0.094385192
3.5751843 -6.2934623 0.37933105 94 9 -0.09438289
0.85407287 -1.5040511 -0.33620548 3 2 -0.09438058
1.9552375 -3.4446392 0.34653121 8 10 -0.094378278
1.0693794 -1.8847457 -0.34321725 2 3 -0.094375975
1.4850982 -2.6174359 0.36950788 8 11 -0.094373673
1.4503658 -2.55726 -0.36097702 1 4 -0.094371364
1.5119928 -2.6670046 0.48557264 9 12 -0.094369061
3.5982013 -6.3494525 -0.63850296 5 5 -0.094366759
3.4990127 -6.1769357 1.3799307 14 13 -0.094364457
3.5055609 -6.1935349 1.6430426 19 14 -0.094359845
3.5548685 -6.2806506 -0.12597147 100 7 -0.094357543
3.5777991 -6.3237381 1.9468369 71 15 -0.09435524
0.57410908 -1.0180485 -0.31317106 5 0 -0.094334505
3.5517569 -6.3007817 0.12625071 97 8 -0.094332196
0.67730385 -1.2020206 -0.31853068 4 1 -0.094329894
3.5432725 -6.2908621 0.378389 94 9 -0.094327591
0.83821934 -1.4882069 -0.33200768 3 2 -0.094325289
1.9402692 -3.4462352 0.3460083 9 10 -0.094322979
1.0608565 -1.8850238 -0.34259152 2 3 -0.094320677
1.4832814 -2.6367023 0.37145779 8 11 -0.094318375
1.4409831 -2.5625589 -0.36097702 1 4 -0.094316073
3.501924 -6.2301602 1.1319599 16 12 -0.094313763
3.5788095 -6.3695455 -0.63920021 5 5 -0.094311461
3.5072424 -6.2421703 1.3917608 14 13 -0.094309159
3.5087233 -6.2499151 1.65474 19 14 -0.094304547
3.5288897 -6.2884059 -0.12586676 100 7 -0.094302244
3.5517621 -6.3317542 1.945284 69 15 -0.094299942
0.57414508 -1.0268906 -0.31524161 5 0 -0.094279207
3.5277903 -6.3096499 0.1261809 94 8 -0.094276905
0.67595601 -1.2094809 -0.3198804 4 1 -0.094274595
3.517395 -6.2962174 0.37797031 92 9 -0.094272293
0.83371627 -1.4929832 -0.3323893 3 2 -0.094269991
1.9334514 -3.4637616 0.34705415 9 10 -0.094267689
1.0597154 -1.8992497 -0.34446874 2 3 -0.094265379
1.4895444 -2.6696002 0.3753576 8 11 -0.094263077
1.4281616 -2.5606387 -0.36000207 1 4 -0.094260775
3.5051653 -6.2872052 1.1400945 20 12 -0.094258472
3.5429752 -6.3576336 -0.63675982 5 5 -0.094256163
3.5206451 -6.3201571 1.4062624 29 13 -0.09425386
3.5199118 -6.3240323 1.6709365 44 14 -0.094249256
3.5088625 -6.3041801 -0.12593657 93 7 -0.094246954
3.5305772 -6.3458018 1.9458016 45 15 -0.094244644
0.5679251 -1.0237209 -0.3136887 5 0 -0.094231606
3.5038042 -6.318428 0.12611109 33 8 -0.094229303
0.67739856 -1.2220595 -0.3225798 4 1 -0.094227001
3.5013378 -6.3165812 0.37849367 42 9 -0.094224691
0.82876092 -1.4957396 -0.3323893 3 2 -0.094222389
1.9132667 -3.454468 0.34548536 9 10 -0.094220087
1.0572383 -1.9096661 -0.3457202 2 3 -0.094217785
1.4984789 -2.7077842 0.37998864 8 11 -0.094215475
1.4254292 -2.5757818 -0.3614645 1 4 -0.094213173
3.5062885 -6.3385506 1.1472905 25 12 -0.094210871
3.5196106 -6.3678808 1.4142764 21 13 -0.094206259
3.5546849 -6.433991 1.6970307 24 14 -0.094201654
3.5169392 -6.3682966 -0.12698372 26 7 -0.094199352
3.5225861 -6.3811526 1.9530486 20 15 -0.094197042
0.56266403 -1.0222138 -0.31265342 5 0 -0.094176307
3.6226079 -6.584054 0.13117228 49 8 -0.094174005
0.67428166 -1.2260067 -0.32302973 4 1 -0.094171703
3.6093469 -6.5626631 0.39251971 38 9 -0.094169401
0.82474202 -1.5002 -0.33277091 3 2 -0.094167091
1.8970033 -3.4520628 0.34461379 9 10 -0.094164789
1.0356835 -1.8854598 -0.34071434 2 3 -0.094162486
1.5095549 -2.7492795 0.38510716 8 11 -0.094160184
1.4121026 -2.5717943 -0.36024579 3 4 -0.094157875
3.6753378 -6.6964831 1.2098643 67 12 -0.094155572
3.6863313 -6.7220764 1.4902184 87 13 -0.094150968
3.6991296 -6.748208 1.7766634 100 14 -0.094146356
3.6524303 -6.6657753 -0.13267319 100 7 -0.094144054
3.7603221 -6.8655233 2.0974696 45 15 -0.094141752
0.56019717 -1.0257696 -0.31317106 5 0 -0.094121017
3.6534529 -6.6925669 0.13309206 56 8 -0.094118707
0.66647851 -1.2213935 -0.32123011 4 1 -0.094116405
3.6552756 -6.7014666 0.40005609 45 9 -0.094114102
0.81882256 -1.5012033 -0.3323893 3 2 -0.0941118
1.8884065 -3.4635825 0.34513673 9 10 -0.094109491
1.0294254 -1.8888839 -0.34071434 2 3 -0.094107188
1.521322 -2.7926207 0.39046943 12 11 -0.094104886
1.4116611 -2.5923982 -0.36243945 1 4 -0.094102584
3.6547732 -6.7144766 1.2108029 65 12 -0.094100274
3.6593287 -6.7256408 1.4883102 63 13 -0.09409567
3.6671758 -6.7456703 1.7726144 77 14 -0.094091065
3.6348686 -6.6890264 -0.13288262 80 7 -0.094088756
3.726191 -6.8599348 2.0917757 71 15 -0.094086453
0.56195199 -1.0380092 -0.31627688 5 0 -0.094065718
3.633877 -6.7123132 0.13323167 63 8 -0.094063416
0.66035616 -1.2202846 -0.32033029 4 1 -0.094061106
3.6271095 -6.7054014 0.39953274 50 9 -0.094058804
0.82078505 -1.5180101 -0.33544225 3 2 -0.094056502
1.8719097 -3.4634695 0.34443948 11 10 -0.0940542
1.0281287 -1.9030719 -0.34259152 2 3 -0.09405189
1.531379 -2.8345909 0.39558792 21 11 -0.094049588
1.4139221 -2.6182699 -0.36536431 1 4 -0.094047286
3.635066 -6.7341461 1.2120544 54 12 -0.094044983
3.6402452 -6.7493758 1.4906 63 13 -0.094040371
3.6405768 -6.7556353 1.7717146 90 14 -0.094035767
3.6152918 -6.7087154 -0.13302223 64 7 -0.094033465
3.6958103 -6.8609943 2.0881522 78 15 -0.094031155
0.55741149 -1.0382622 -0.31575924 5 0 -0.09401042
3.6130338 -6.7326345 0.13337129 45 8 -0.094008118
0.65403676 -1.2192622 -0.3194305 4 1 -0.094005816
3.6053398 -6.7239313 0.39984673 45 9 -0.094003506
0.80805922 -1.5070243 -0.3323893 3 2 -0.094001204
1.8560443 -3.4629583 0.34374225 11 10 -0.093998902
1.0214795 -1.9066491 -0.34259152 2 3 -0.093996599
1.5303509 -2.8576844 0.39802533 49 11 -0.093994297
1.3780848 -2.5744314 -0.35853964 1 4 -0.093991987
3.6084962 -6.7439413 1.2114286 45 12 -0.093989685
3.6175892 -6.763773 1.4909816 59 13 -0.093985081
3.6133001 -6.7614269 1.769915 85 14 -0.093980469
3.5831423 -6.7078099 -0.132743 32 7 -0.093978167
3.6697283 -6.8727889 2.0876343 71 15 -0.093975864
0.55287606 -1.0384965 -0.31524161 5 0 -0.093955122
3.5932682 -6.7522669 0.13351092 38 8 -0.09395282
0.65069187 -1.2232583 -0.3198804 4 1 -0.093950517
3.5837231 -6.7400017 0.40005609 39 9 -0.093948215
0.80279392 -1.5098356 -0.3323893 3 2 -0.093945913
1.8373994 -3.4571006 0.34252208 11 10 -0.093943603
1.018525 -1.9171813 -0.34384301 2 3 -0.093941301
1.5268835 -2.8752813 0.39973149 17 11 -0.093938999
1.3746746 -2.5897462 -0.36000207 1 4 -0.093936697
3.5877106 -6.7617311 1.2123673 38 12 -0.093934387
3.5976365 -6.7832971 1.4925081 59 13 -0.093929783
3.5969756 -6.7877736 1.7735142 85 14 -0.093925171
3.5671935 -6.7344136 -0.13302223 36 7 -0.093922868
3.6430032 -6.8804355 2.0860815 69 15 -0.093920566
0.53932691 -1.0216275 -0.3095476 4 0 -0.093899831
3.5715427 -6.7683058 0.13358071 42 8 -0.093897529
0.65005457 -1.2324169 -0.32168001 4 1 -0.093895219
3.5688066 -6.7659812 0.40089345 39 9 -0.093892917
0.7993499 -1.516102 -0.33315253 3 2 -0.093890615
1.8243916 -3.4617307 0.34234774 11 10 -0.093888313
1.00262 -1.9032478 -0.34071434 2 3 -0.093886003
1.5353358 -2.9157226 0.40460625 16 11 -0.093883701
1.3693246 -2.6015556 -0.36097702 1 4 -0.093881398
3.568949 -6.7805829 1.2136188 35 12 -0.093879096
3.5739369 -6.7958136 1.4925081 56 13 -0.093874484
3.575979 -6.8054633 1.7748638 77 14 -0.09386988
3.5513527 -6.7585969 -0.13326657 36 7 -0.09386757
3.6210651 -6.8941889 2.0865991 65 15 -0.093865268
0.54113293 -1.0337732 -0.31265342 5 0 -0.093844533
3.5546427 -6.7907424 0.13379015 38 8 -0.093842231
0.64596432 -1.2345656 -0.32168001 4 1 -0.093839929
3.5507209 -6.7890167 0.4015215 40 9 -0.093837619
0.79769111 -1.5258424 -0.33467901 3 2 -0.093835317
1.8095284 -3.4627805 0.34182483 11 10 -0.093833014
0.99447304 -1.9030604 -0.34008855 2 3 -0.093830712
1.533011 -2.9348741 0.40655616 12 11 -0.093828402
1.3570148 -2.5990434 -0.36000207 1 4 -0.0938261
3.5607955 -6.8227701 1.2189375 42 12 -0.093823798
3.5568297 -6.8180718 1.4947978 54 13 -0.093819186
3.5633001 -6.8362932 1.7798127 74 14 -0.093814582
3.536979 -6.7886872 -0.13361563 32 7 -0.093812279
3.6041167 -6.9204931 2.0907402 60 15 -0.093809977
0.53948236 -1.0389909 -0.3136887 4 0 -0.093789235
3.5364447 -6.8137579 0.13399959 39 8 -0.093786933
0.63357419 -1.2212447 -0.31763089 4 1 -0.09378463
3.5325177 -6.8120079 0.40214953 40 9 -0.093782328
0.78720409 -1.5180223 -0.3323893 3 2 -0.093780018
1.7998695 -3.4722996 0.34217343 11 10 -0.093777716
0.99145943 -1.913536 -0.34134007 2 3 -0.093775414
1.5300603 -2.9543095 0.4085061 20 11 -0.093773112
1.3515846 -2.610816 -0.36097702 1 4 -0.093770802
3.5451286 -6.8509483 1.2217534 60 12 -0.0937685
3.5456357 -6.8548589 1.5001404 50 13 -0.093763895
3.5465732 -6.8625398 1.783412 68 14 -0.093759283
3.5233567 -6.8205347 -0.13399959 56 7 -0.093756981
3.5932331 -6.9587808 2.098505 45 15 -0.093754679
0.53567064 -1.0409613 -0.3136887 5 0 -0.093733944
3.5217881 -6.8438416 0.13434863 39 8 -0.093731634
0.62752461 -1.219983 -0.3167311 4 1 -0.093729332
3.5141981 -6.8349547 0.40277758 40 9 -0.09372703
0.78701943 -1.531374 -0.33467901 3 2 -0.093724728
1.7834892 -3.4717844 0.3414762 11 10 -0.093722418
0.98985302 -1.9277006 -0.34321725 2 3 -0.093720116
3.5282235 -6.8710794 0.94838732 61 11 -0.093717813
1.3479019 -2.6261141 -0.36243945 1 4 -0.093715511
3.5257008 -6.8720689 1.2233176 66 12 -0.093713209
3.53213 -6.8905206 1.5051014 43 13 -0.093708597
3.5276148 -6.8876338 1.7865613 52 14 -0.093703993
3.5068192 -6.8470311 -0.13427882 32 7 -0.093701683
3.6023734 -7.0366254 2.118175 13 15 -0.093699381
0.53203374 -1.0428247 -0.3136887 4 0 -0.093678646
3.5121245 -6.8869882 0.13494201 29 8 -0.093676344
0.63632411 -1.2483176 -0.32347962 4 1 -0.093674034
3.509366 -6.8845472 0.40497568 34 9 -0.093671732
0.77097356 -1.5131208 -0.33009958 3 2 -0.093669429
1.7650299 -3.4655612 0.34025604 12 10 -0.093667127
0.98311818 -1.931144 -0.34321725 2 3 -0.093664825
3.5192218 -6.9158096 0.95277458 46 11 -0.093662515
1.3382677 -2.6310368 -0.36243945 1 4 -0.093660213
3.5070658 -6.8948979 1.2251948 46 12 -0.093657911
3.5249565 -6.9360619 1.5123522 31 13 -0.093653299
3.5247257 -6.941607 1.7973589 38 14 -0.093648694
3.4991937 -6.891324 -0.13490711 32 7 -0.093646392
3.637244 -7.1662998 2.1533747 15 15 -0.093644083
0.52228695 -1.0326084 -0.31006524 4 0 -0.093623348
3.5028059 -6.9253631 0.13546558 25 8 -0.093621045
0.63130176 -1.2486819 -0.32302973 4 1 -0.093618743
3.5087347 -6.9431028 0.40769714 29 9 -0.093616441
0.77453893 -1.5333265 -0.33391577 3 2 -0.093614131
1.745738 -3.457473 0.33886153 12 10 -0.093611829
0.97136676 -1.9238135 -0.34134007 2 3 -0.093609527
3.5186288 -6.9717464 0.95886809 34 11 -0.093607225
1.3170178 -2.6106474 -0.35902712 1 4 -0.093604915
3.5069907 -6.954721 1.2336423 34 12 -0.093602613
3.5204928 -6.984529 1.5203662 17 13 -0.093598008
3.5235996 -6.9967699 1.8086064 16 14 -0.093593396
3.4984944 -6.9499373 -0.13581464 28 7 -0.093591094
3.6061292 -7.1668715 2.1497512 11 15 -0.093588792
0.51452875 -1.0257008 -0.30747706 4 0 -0.093568057
3.5162556 -7.0126257 0.13693158 25 8 -0.093565747
0.62170023 -1.2404248 -0.32033029 4 1 -0.093563445
3.514329 -7.011837 0.41104665 23 9 -0.093561143
0.76769114 -1.5323759 -0.33315253 3 2 -0.09355884
1.732479 -3.4596796 0.3385129 16 10 -0.093556531
0.96818215 -1.9342582 -0.34259152 2 3 -0.093554229
3.5147004 -7.0248179 0.96447408 8 11 -0.093551926
1.3078969 -2.6152289 -0.35902712 1 4 -0.093549624
4.0301223 -8.0725851 2.0830467 22 14 -0.093538098
3.5165157 -7.0437999 -0.13742025 8 7 -0.093535796
3.5840678 -7.1822476 2.1507864 7 15 -0.093533494
0.52040714 -1.0465182 -0.31317106 4 0 -0.093512759
4.158989 -8.3635635 0.16304037 22 8 -0.093510456
0.61151165 -1.2302642 -0.31718099 3 1 -0.093508147
4.1501174 -8.353034 0.48881787 17 9 -0.093505844
0.77456301 -1.5596632 -0.33849517 3 2 -0.093503542
1.7257071 -3.4764137 0.33955875 12 10 -0.09350124
0.9564929 -1.9268421 -0.34071434 3 3 -0.09349893
4.1716638 -8.407445 1.1523966 24 11 -0.093496628
1.3080374 -2.6373355 -0.3614645 1 4 -0.093494326
4.1851778 -8.4420795 1.492385 20 12 -0.093492024
4.0281444 -8.1288891 1.7634568 16 13 -0.093487412
4.0327282 -8.1452837 2.0983434 22 14 -0.093482807
4.1624379 -8.4109621 -0.16380829 29 7 -0.093480505
3.554692 -7.1860566 2.1481981 3 15 -0.093478195
0.51351607 -1.0413077 -0.31110048 4 0 -0.09345746
4.1713238 -8.4623318 0.16468091 22 8 -0.093455158
0.61151993 -1.2411317 -0.3194305 4 1 -0.093452856
4.1615262 -8.4498911 0.49363276 17 9 -0.093450546
0.75550818 -1.5340434 -0.3323893 3 2 -0.093448244
1.7115294 -3.4767547 0.33903584 5 10 -0.093445942
0.95150524 -1.9337138 -0.34134007 2 3 -0.09344364
4.2001152 -8.5395222 1.1684834 40 11 -0.09344133
1.2865623 -2.616945 -0.35805216 1 4 -0.093439028
4.1835613 -8.5133677 1.5023967 19 12 -0.093436725
4.0395608 -8.2239599 1.7810113 16 13 -0.093432121
4.0480576 -8.2485304 2.1212883 22 14 -0.093427509
4.1753254 -8.5116158 -0.16548371 24 7 -0.093425207
3.5534 -7.2469883 2.1626918 1 15 -0.093422905
0.50799996 -1.0397115 -0.31006524 3 0 -0.093402162
4.1838965 -8.5630817 0.16635634 22 8 -0.09339986
0.60974956 -1.2485119 -0.32078022 3 1 -0.093397558
4.1740613 -8.550518 0.49865705 17 9 -0.093395256
0.74471486 -1.5262157 -0.33009958 3 2 -0.093392953
1.6516109 -3.3863041 0.32962301 1 10 -0.093390644
0.94960529 -1.947842 -0.34321725 3 3 -0.093388341
4.1911588 -8.5969553 1.1743331 25 11 -0.093386039
1.2878546 -2.6428339 -0.36097702 1 4 -0.093383737
4.1970696 -8.6167154 1.5180402 19 12 -0.093381427
4.0489101 -8.3199139 1.7985657 16 13 -0.093376823
4.0621076 -8.3544464 2.1446834 22 14 -0.093372211
4.1814394 -8.5998726 -0.16691481 24 7 -0.093369909
3.5247042 -7.2523985 2.1606214 1 15 -0.093367606
0.50099957 -1.0345235 -0.30799466 3 0 -0.093346871
4.1977901 -8.6719542 0.16817139 21 8 -0.093344569
0.61111057 -1.2630178 -0.32392952 4 1 -0.09334226
4.1894231 -8.6585245 0.50410002 17 9 -0.093339957
0.74964029 -1.5500146 -0.33467901 3 2 -0.093337655
1.6120319 -3.3346474 0.32404503 1 10 -0.093335353
0.94108129 -1.9475876 -0.34259152 2 3 -0.093333043
4.2062416 -8.7087851 1.187495 19 11 -0.093330741
1.2781597 -2.6475363 -0.36097702 1 4 -0.093328439
4.2116256 -8.7238178 1.5343094 27 12 -0.093326136
4.0641956 -8.4259491 1.8184099 20 13 -0.093321525
4.0693002 -8.4440622 2.1640291 22 14 -0.09331692
4.196538 -8.7080898 -0.16872986 24 7 -0.09331461
3.9965227 -8.2967472 2.4675808 21 15 -0.093312308
0.4990572 -1.0397491 -0.30902994 3 0 -0.093291573
4.2053518 -8.7615433 0.16963738 18 8 -0.093289271
0.60270429 -1.2562523 -0.32168001 3 1 -0.093286969
4.2127185 -8.78475 0.51058966 17 9 -0.093284659
0.74592239 -1.5561628 -0.33544225 3 2 -0.093282357
1.6124339 -3.3654096 0.32648543 1 10 -0.093280055
0.92949647 -1.940009 -0.34071434 2 3 -0.093277752
4.2176385 -8.8068323 1.1989506 22 11 -0.093275443
1.2796578 -2.6732466 -0.36390188 1 4 -0.09327314
4.2092829 -8.7972689 1.5446341 10 12 -0.093270838
4.070962 -8.5119953 1.8340561 10 13 -0.093266226
4.0849652 -8.5489426 2.1874242 22 14 -0.093261622
4.2040362 -8.8020811 -0.17026567 16 7 -0.09325932
3.9692016 -8.3141336 2.468616 36 15 -0.09325701
0.49726698 -1.0448873 -0.31006524 3 0 -0.093236275
0.59162098 -1.244269 -0.31808078 3 1 -0.093231671
0.73738688 -1.5515351 -0.33391577 3 2 -0.093227059
1.6081046 -3.3851352 0.32787988 1 10 -0.093224756
0.9261083 -1.9503794 -0.34196579 2 3 -0.093222454
4.2311301 -8.9147558 1.2116251 23 11 -0.093220152
1.2567054 -2.6490011 -0.36000207 1 4 -0.093217842
4.1895523 -8.8351116 1.5487014 7 12 -0.09321554
4.0849485 -8.6184053 1.8539003 17 13 -0.093210936
4.1001382 -8.6582565 2.2117188 22 14 -0.093206324
1.6913869 -3.573313 -0.069006816 1 7 -0.093204021
3.9632893 -8.3768339 2.4831102 23 15 -0.093201719
0.50002384 -1.0606822 -0.31420633 3 0 -0.093180984
1.632905 -3.4638209 0.06684272 11 8 -0.093178675
0.5905968 -1.2533779 -0.3198804 4 1 -0.093176372
1.6271547 -3.4547489 0.20013271 12 9 -0.09317407
0.72751415 -1.5453461 -0.33200768 3 2 -0.093171768
1.6160465 -3.4342725 0.33206338 2 10 -0.093169458
0.91559058 -1.9466106 -0.34071434 3 3 -0.093167156
4.248991 -9.0336561 1.225762 20 11 -0.093164854
1.2609643 -2.6821148 -0.36390188 1 4 -0.093162552
4.1536446 -8.8389559 1.5468242 4 12 -0.093160242
1.6382133 -3.4876978 -0.33711842 13 5 -0.09315794
4.0992236 -8.731061 1.8748893 17 13 -0.093155637
4.1031342 -8.7473259 2.2306147 22 14 -0.093151033
1.6228554 -3.4597077 -0.066703096 13 7 -0.093148723
3.9807711 -8.4903173 2.5126152 20 15 -0.093146421
0.49141246 -1.0519192 -0.31110048 3 0 -0.093125686
1.6218904 -3.4734063 0.066912524 17 8 -0.093123384
0.58682317 -1.2573 -0.32033029 4 1 -0.093121074
1.6108623 -3.4513586 0.19960935 12 9 -0.093118772
0.72377539 -1.5514344 -0.33277091 3 2 -0.09311647
1.6091006 -3.4507275 0.33310926 4 10 -0.093114167
0.91463161 -1.962328 -0.34290439 3 3 -0.093111858
4.2477078 -9.117547 1.2350241 3 11 -0.093109556
1.2410694 -2.6651242 -0.36097702 1 4 -0.093107253
1.6235065 -3.4879763 -0.33659548 19 5 -0.093102649
4.1126137 -8.8396587 1.895115 17 13 -0.093100339
4.1210384 -8.8658581 2.2571588 22 14 -0.093095735
1.6065543 -3.4562845 -0.066528574 10 7 -0.093093432
3.9901805 -8.5882578 2.5374622 20 15 -0.093091123
0.48773754 -1.0536282 -0.31110048 3 0 -0.093070388
0.58346891 -1.2610078 -0.32078022 3 1 -0.093065783
0.72165084 -1.5610796 -0.33429739 4 2 -0.093061171
1.6037316 -3.4707923 0.33450374 4 10 -0.093058869
0.90646225 -1.9617635 -0.34227866 3 3 -0.093056567
1.2372168 -2.6800392 -0.36243945 1 4 -0.093051955
1.614659 -3.5008588 -0.3372927 1 5 -0.093047351
4.1243896 -8.9423876 1.914196 17 13 -0.093045048
4.1413627 -8.9874382 2.2846029 22 14 -0.093040437
0.90933859 -1.9743201 -0.03794153 1 7 -0.093038134
4.0005717 -8.6898746 2.5633438 20 15 -0.093035832
0.48424086 -1.0552399 -0.31110048 3 0 -0.093015097
0.90373516 -1.9702934 0.03783682 2 8 -0.093012787
0.57419074 -1.252408 -0.31808078 3 1 -0.093010485
0.90062606 -1.9644191 0.11325502 2 9 -0.093008183
0.71810585 -1.5670336 -0.3350606 4 2 -0.093005881
0.89940542 -1.9635661 0.18895365 4 10 -0.093003571
0.89714158 -1.9595276 -0.34134007 3 3 -0.093001269
0.89542836 -1.9566871 0.26421279 4 11 -0.092998967
0.90004116 -1.9676745 -0.26567519 3 4 -0.092996664
0.89317101 -1.952655 0.34008855 4 12 -0.092994355
0.90134794 -1.9714415 -0.18965089 2 5 -0.092992052
4.1363997 -9.0513678 1.9344217 17 13 -0.09298975
4.1544819 -9.0993385 2.3093476 22 14 -0.092985138
0.88368428 -1.9354863 -0.037138719 4 7 -0.092982836
4.0230637 -8.8155727 2.5964727 20 15 -0.092980534
0.48375294 -1.0639583 -0.31317106 3 0 -0.092959799
0.89057517 -1.9587164 0.03755758 8 8 -0.092957497
0.5684219 -1.250757 -0.31718099 3 1 -0.092955187
0.889633 -1.9584588 0.11273166 8 9 -0.092952885
0.72074801 -1.587407 -0.33887681 4 2 -0.092950583
0.89336908 -1.9685079 0.18912795 10 10 -0.09294828
0.88982254 -1.9606931 -0.34102717 4 3 -0.092945971
0.89549512 -1.9741079 0.26616266 12 11 -0.092943668
0.89351112 -1.9706484 -0.26567519 9 4 -0.092941366
0.88879579 -1.9611588 0.34102717 11 12 -0.092939064
0.89446098 -1.9745756 -0.18965089 8 5 -0.092936754
4.1549664 -9.1723347 1.9573188 21 13 -0.092934452
4.1749034 -9.2249146 2.3376913 44 14 -0.092929848
0.89093399 -1.9695324 -0.037732106 15 7 -0.092927545
4.0376339 -8.9298983 2.6259782 20 15 -0.092925236
0.48003593 -1.0656404 -0.31317106 3 0 -0.092883587
0.88585293 -1.9674375 0.03766229 40 8 -0.092881285
0.56703287 -1.2599403 -0.3189806 3 1 -0.092878982
0.70714837 -1.5720088 -0.3350606 4 2 -0.092874371
0.88182074 -1.9621394 -0.34071434 6 3 -0.092869766
0.88011938 -1.9592689 0.26372528 40 11 -0.092867456
0.88465613 -1.9702882 -0.26518771 41 4 -0.092865154
0.87270486 -1.9445788 0.3375856 41 12 -0.092862852
0.89898372 -2.0031338 -0.19209124 64 5 -0.09286055
4.1655145 -9.2860222 1.9783077 95 13 -0.09285824
4.1657701 -9.2952824 2.3516383 100 14 -0.092853636
4.0522447 -9.0504274 2.6570365 24 15 -0.092849024
0.48103708 -1.0778943 -0.31627688 3 0 -0.092828289
0.56263119 -1.261912 -0.3189806 3 1 -0.092823684
0.69366533 -1.5565351 -0.33124444 4 2 -0.092819072
0.88284755 -1.9819767 0.18982521 30 10 -0.09281677
0.88139349 -1.9796425 -0.34321725 10 3 -0.092814468
0.87731034 -1.9713973 0.26494396 25 11 -0.092812166
0.88342065 -1.9860603 -0.26689389 65 4 -0.092809856
0.86510921 -1.9458083 0.33727276 26 12 -0.092807554
0.87984461 -1.9789513 -0.18947658 91 5 -0.092805251
4.1227102 -9.2771845 1.9733468 78 13 -0.092802949
4.1198559 -9.2794876 2.3439898 100 14 -0.092798337
0.86951751 -1.9594071 -0.037417959 81 7 -0.092796035
4.0707569 -9.177537 2.690165 30 15 -0.092793733
0.47102255 -1.065432 -0.31213579 3 0 -0.092772998
0.86643857 -1.9607706 0.037417959 18 8 -0.092770688
0.56452167 -1.278129 -0.3225798 3 1 -0.092768386
0.86469924 -1.9586834 0.1122083 10 9 -0.092766084
0.69615662 -1.5769072 -0.3350606 3 2 -0.092763782
0.86868465 -1.9686409 0.1882564 7 10 -0.092761472
0.86252075 -1.9555961 -0.33852422 6 3 -0.09275917
0.86802149 -1.9689984 0.26421279 7 11 -0.092756867
0.86607665 -1.9655168 -0.26372528 13 4 -0.092754565
0.8630892 -1.959663 0.33914998 33 12 -0.092752255
0.8729316 -1.9820105 -0.18947658 10 5 -0.092749953
4.0895104 -9.2897215 1.972965 87 13 -0.092747651
4.0835171 -9.284894 2.3417406 96 14 -0.092743047
0.85623461 -1.9477853 -0.037138719 8 7 -0.092740737
4.087656 -9.3031158 2.7227764 85 15 -0.092738435
0.47040039 -1.0741479 -0.31420633 3 0 -0.0927177
0.86039066 -1.9656149 0.037452865 5 8 -0.092715397
0.56005687 -1.2800918 -0.3225798 3 1 -0.092713088
0.86665946 -1.9818192 0.1133597 4 9 -0.092710786
0.68592823 -1.568535 -0.33277091 4 2 -0.092708483
4.0504951 -9.2668076 0.88480508 43 10 -0.092706181
0.86122507 -1.9712662 -0.34071434 4 3 -0.092703871
4.0467367 -9.2670212 1.241605 38 11 -0.092701569
0.86318111 -1.9776248 -0.26494396 4 4 -0.092699267
0.85782295 -1.9662852 0.33977571 21 12 -0.092696965
0.86441416 -1.9813935 -0.18912795 4 5 -0.092694663
4.0484271 -9.2841434 1.9687674 82 13 -0.092692353
4.0471902 -9.2901592 2.3394909 93 14 -0.092687748
4.0164323 -9.2239513 -0.17560612 32 7 -0.092685446
4.0513034 -9.3084698 2.7201881 100 15 -0.092683136
0.46203545 -1.0651495 -0.31110048 3 0 -0.092662401
4.006712 -9.2412567 0.17581554 100 8 -0.092660099
0.55093569 -1.2713106 -0.3198804 3 1 -0.092657797
4.0026007 -9.2361946 0.52754653 76 9 -0.092655487
0.68200946 -1.5745229 -0.33353412 3 2 -0.092653185
4.0220823 -9.2900314 0.88567668 100 10 -0.092650883
0.85669225 -1.979699 -0.3416529 3 3 -0.092648581
4.0088477 -9.2683382 1.2398988 100 11 -0.092646278
1.1450473 -2.6473155 -0.35415235 1 4 -0.092643969
0.84816259 -1.961866 0.33852422 15 12 -0.092641667
4.0089884 -9.2819977 1.9653327 74 13 -0.092637062
4.0124979 -9.2945824 2.3372414 96 14 -0.09263245
3.9850311 -9.235384 -0.1755712 100 7 -0.092630148
4.0158224 -9.3112106 2.7170823 100 15 -0.092627846
0.46307811 -1.077325 -0.31420633 3 0 -0.092607103
3.9689403 -9.237958 0.17550141 90 8 -0.092604801
0.54517889 -1.2695495 -0.3189806 3 1 -0.092602499
3.9680099 -9.2402411 0.52702314 94 9 -0.092600197
0.67678452 -1.5767758 -0.33353412 3 2 -0.092597894
3.97947 -9.2758541 0.88306201 100 10 -0.092595585
0.84856564 -1.9788982 -0.34102717 3 3 -0.092593282
3.9749632 -9.2742815 1.2389238 100 11 -0.09259098
1.1550307 -2.6948876 -0.36000207 1 4 -0.092588678
0.84165192 -1.964668 0.33852422 15 12 -0.092586368
3.9735508 -9.2844114 1.963043 74 13 -0.092581764
3.9739907 -9.2899208 2.3327425 100 14 -0.092577152
3.9441631 -9.2246456 -0.17511745 91 7 -0.09257485
3.981127 -9.3155947 2.7144945 85 15 -0.092572547
0.45647502 -1.0717453 -0.31213579 3 0 -0.092551813
3.9414179 -9.2584276 0.17564102 93 8 -0.09254951
0.54249203 -1.2749366 -0.3198804 3 1 -0.092547201
3.932605 -9.2466831 0.52660441 94 9 -0.092544898
0.671552 -1.5790113 -0.33353412 3 2 -0.092542596
3.940114 -9.2688293 0.88114458 100 10 -0.092540294
0.84199882 -1.9817011 -0.34102717 3 3 -0.092537984
3.9418585 -9.2819309 1.2381927 100 11 -0.092535682
1.1456163 -2.6989033 -0.36000207 1 4 -0.09253338
0.8301596 -1.956683 0.33664703 13 12 -0.092531078
3.9412088 -9.2939224 1.9622798 74 13 -0.092526466
3.9400175 -9.3001471 2.3318427 100 14 -0.092521861
3.908041 -9.2291489 -0.17494293 100 7 -0.092519552
3.9380434 -9.3045273 2.7072473 85 15 -0.092517249
0.45723602 -1.084012 -0.31524161 3 0 -0.092496514
3.9028599 -9.2573881 0.17536178 100 8 -0.092494212
0.54560566 -1.2947805 -0.32437941 3 1 -0.09249191
3.8972044 -9.2529917 0.52618575 94 9 -0.0924896
0.65765369 -1.5614434 -0.32933635 3 2 -0.092487298
3.9061894 -9.2788544 0.88079596 100 10 -0.092484996
0.83431017 -1.9828075 -0.34071434 2 3 -0.092482693
3.9032786 -9.2809944 1.2362427 100 11 -0.092480384
1.1284962 -2.6845858 -0.35756469 1 4 -0.092478082
0.82102907 -1.9541053 0.33570841 13 12 -0.092475779
3.959908 -9.4248514 -0.89439219 7 5 -0.092473477
3.9026604 -9.2931433 1.9592268 72 13 -0.092471167
3.9045155 -9.3066549 2.3300431 100 14 -0.092466563
3.8727074 -9.2353592 -0.17480332 100 7 -0.092464261
3.9010599 -9.3075266 2.7041416 90 15 -0.092461959
0.45344913 -1.0856016 -0.31524161 3 0 -0.092441216
3.8651299 -9.2580385 0.17511745 100 8 -0.092438914
0.53507918 -1.2822896 -0.32078022 3 1 -0.092436612
3.8648803 -9.2665405 0.52618575 94 9 -0.092434309
0.65522194 -1.5709776 -0.33086282 3 2 -0.092432
3.8668773 -9.2758818 0.8792271 100 10 -0.092429698
0.82586402 -1.9820607 -0.34008855 2 3 -0.092427395
3.8662782 -9.2835693 1.2347803 100 11 -0.092425093
1.1389525 -2.7361574 -0.36390188 1 4 -0.092422783
0.81951457 -1.9697261 0.33789849 13 12 -0.092420481
3.8870864 -9.3473206 -0.88567668 7 5 -0.092418179
3.8686907 -9.3030834 1.9584637 72 13 -0.092415877
3.872005 -9.3202276 2.3300431 100 14 -0.092411265
3.838913 -9.2451258 -0.17473349 100 7 -0.092408963
3.8670664 -9.3175182 2.7031062 87 15 -0.09240666
0.44651511 -1.080115 -0.31317106 3 0 -0.092385925
3.8312616 -9.2677774 0.17504764 100 8 -0.092383616
0.52762312 -1.2769454 -0.3189806 3 1 -0.092381313
3.8264122 -9.2652054 0.52534837 99 9 -0.092379011
0.65545231 -1.5878863 -0.33391577 3 2 -0.092376709
3.8328526 -9.2899923 0.8792271 100 10 -0.092374399
0.82311261 -1.9960316 -0.34196579 2 3 -0.092372097
3.8255248 -9.2768211 1.2320992 100 11 -0.092369795
1.1127526 -2.6997399 -0.35853964 1 4 -0.092367493
0.81263387 -1.9725747 0.33789849 12 12 -0.09236519
3.892365 -9.4529467 -0.89439219 7 5 -0.092362881
3.8263478 -9.2972298 1.9542658 68 13 -0.092360578
3.8304069 -9.3163338 2.3255439 100 14 -0.092355974
3.803575 -9.2510729 -0.17459388 100 7 -0.092353664
3.8323159 -9.3256006 2.7015533 92 15 -0.092351362
0.44127846 -1.0780913 -0.31213579 3 0 -0.092330627
3.7927246 -9.2706528 0.17483822 100 8 -0.092328325
0.5244143 -1.2824782 -0.3198804 3 1 -0.092326015
3.7848716 -9.2606802 0.52430165 94 9 -0.092323713
0.64544916 -1.5792605 -0.33162606 3 2 -0.092321411
3.7973883 -9.2959375 0.87852991 100 10 -0.092319109
0.80867285 -1.9806045 -0.33883709 3 3 -0.092316806
3.7914977 -9.2907791 1.2320992 100 11 -0.092314497
1.1028502 -2.7038002 -0.35853964 1 4 -0.092312194
0.8016699 -1.9663941 0.33633414 10 12 -0.092309892
3.7909074 -9.303257 1.9527394 68 13 -0.09230528
3.7927213 -9.3170128 2.3223946 100 14 -0.092300676
3.7643685 -9.2519865 -0.17434955 100 7 -0.092298374
3.7973821 -9.3377943 2.7010357 90 15 -0.092296064
0.44331709 -1.0939484 -0.31627688 3 0 -0.092275329
3.7603405 -9.2838354 0.17483822 100 8 -0.092273027
0.51993454 -1.2843009 -0.3198804 3 1 -0.092270724
3.7495255 -9.2664289 0.52388299 99 9 -0.092268422
0.63404137 -1.5669447 -0.32857311 3 2 -0.092266113
3.7619274 -9.3017473 0.87783265 100 10 -0.09226381
0.80545604 -1.9925722 -0.34040144 3 3 -0.092261508
3.7575564 -9.3002777 1.2316117 100 11 -0.092259206
1.0919185 -2.7039523 -0.35805216 2 4 -0.092256896
0.79184383 -1.9618533 0.33508268 10 12 -0.092254594
3.7569418 -9.3127918 1.9519762 65 13 -0.09224999
3.7485218 -9.3012753 2.3151963 99 14 -0.092245378
3.7268198 -9.2520866 -0.17410521 100 7 -0.092243075
3.7575488 -9.3330727 2.6958592 90 15 -0.092240773
0.43374121 -1.0811456 -0.31213579 3 0 -0.092220038
3.7197242 -9.2764883 0.17445426 100 8 -0.092217728
0.51979822 -1.2969612 -0.3225798 3 1 -0.092215426
3.7171564 -9.2794609 0.52388299 99 9 -0.092213124
0.6380583 -1.5928404 -0.33353412 3 2 -0.092210822
3.7227705 -9.2981758 0.87626386 100 10 -0.092208512
0.79335862 -1.9825338 -0.33821136 2 3 -0.09220621
3.7265434 -9.3170233 1.2320992 94 11 -0.092203908
1.0898423 -2.7261798 -0.36048955 1 4 -0.092201605
0.7871893 -1.9701084 0.33602124 9 12 -0.092199296
3.718586 -9.3112631 1.9489232 68 13 -0.092194691
3.7153082 -9.3124943 2.3147464 96 14 -0.092190079
3.6937604 -9.2631817 -0.17407031 100 7 -0.092187777
0.42853865 -1.0790621 -0.31110048 3 0 -0.09216474
3.6836324 -9.2801228 0.17427972 100 8 -0.092162438
0.50664389 -1.2770312 -0.31718099 3 1 -0.092160128
3.680326 -9.2812395 0.52325493 99 9 -0.092157826
0.63538921 -1.602358 -0.3350606 3 2 -0.092155524
3.6851532 -9.2981491 0.87504369 100 10 -0.092153221
0.78497815 -1.981618 -0.3375856 2 3 -0.092150912
3.6844981 -9.3059807 1.2289306 60 11 -0.092148609
1.0715545 -2.7078176 -0.35756469 1 4 -0.092146307
0.78612018 -1.9875395 0.33852422 9 12 -0.092144005
1.6378099 -4.1408577 -0.38958618 1 5 -0.092141695
3.6802866 -9.3095808 1.9458703 68 13 -0.092139393
3.6827796 -9.3254061 2.3147464 99 14 -0.092134789
3.66067 -9.2741585 -0.17403539 100 7 -0.092132486
3.3725562 -8.548605 2.4624047 23 15 -0.092130177
0.42618296 -1.0841473 -0.31213579 3 0 -0.092109442
3.6497533 -9.2892027 0.17420992 100 8 -0.09210714
0.50503254 -1.2860475 -0.3189806 3 1 -0.092104837
3.6466079 -9.2859573 0.52283627 94 9 -0.092102528
0.624771 -1.5917735 -0.3323893 3 2 -0.092100225
3.6534004 -9.3128109 0.87521797 100 10 -0.092097923
0.78526735 -2.0027366 -0.34071434 2 3 -0.092095621
3.6461983 -9.3039989 1.2269807 27 11 -0.092093311
1.0669149 -2.7224452 -0.35902712 1 4 -0.092091009
0.7766431 -1.9827783 0.33727276 9 12 -0.092088707
3.6463363 -9.3187132 1.945107 68 13 -0.092084102
3.6433175 -9.3157892 2.3093476 96 14 -0.09207949
3.6284389 -9.2825212 -0.17396559 100 7 -0.092077188
0.42538875 -1.0927557 -0.31420633 3 0 -0.092054144
3.6145785 -9.2900734 0.17400049 100 8 -0.092051841
0.49935243 -1.2840825 -0.31808078 3 1 -0.092049539
3.6085551 -9.2793837 0.52178955 99 9 -0.092047237
0.61948901 -1.5938365 -0.3323893 3 2 -0.092044935
3.6087909 -9.289588 0.87190604 82 10 -0.092042625
0.77290171 -1.9905982 -0.33821136 2 3 -0.092040323
1.0506991 -2.7074621 -0.35658973 1 4 -0.092035718
0.77363551 -1.9945509 0.33883709 9 12 -0.092033409
3.6125772 -9.3234329 1.9435806 65 13 -0.092028804
3.608182 -9.3169165 2.3066483 96 14 -0.092024192
3.5904195 -9.2758541 -0.17361654 100 7 -0.09202189
3.319968 -8.5815935 2.4655101 100 15 -0.092019588
0.42176265 -1.0941603 -0.31420633 4 0 -0.091998853
3.5808756 -9.2945452 0.17386088 100 8 -0.091996551
0.50069374 -1.30028 -0.32168001 3 1 -0.091994241
3.5761425 -9.2919226 0.52178955 94 9 -0.091991939
0.60757798 -1.5794981 -0.32895473 3 2 -0.091989636
3.5715275 -9.2847681 0.87033719 73 10 -0.091987334
0.77338505 -2.0115881 -0.34134007 2 3 -0.091985025
0.96339089 -2.507102 0.32977846 1 11 -0.091982722
1.051206 -2.7370572 -0.36000207 1 4 -0.09198042
0.76312894 -1.9880186 0.33727276 9 12 -0.091978118
1.5950831 -4.1575031 -0.38958618 1 5 -0.091975808
3.5828223 -9.343317 1.945107 61 13 -0.091973506
3.5770335 -9.3330927 2.3075478 96 14 -0.091968901
3.5522947 -9.2733908 -0.1733373 100 7 -0.091966592
0.41706127 -1.0938936 -0.3136887 4 0 -0.091943555
3.5418019 -9.2945261 0.17361654 100 8 -0.091941252
0.49315006 -1.294822 -0.3198804 3 1 -0.09193895
3.5392203 -9.2975025 0.52137089 94 9 -0.09193664
0.60457742 -1.589054 -0.3304812 3 2 -0.091934338
3.5339317 -9.2884855 0.86946571 61 10 -0.091932036
0.75758159 -1.9922527 -0.3375856 3 3 -0.091929734
0.95842683 -2.52175 0.33124092 1 11 -0.091927424
1.0482162 -2.7594488 -0.36243945 1 4 -0.091925122
0.76074535 -2.0037296 0.33946282 9 12 -0.09192282
3.540199 -9.3343582 1.9405276 61 13 -0.091918208
