# .PCD v0.7 - Point Cloud Data file format
VERSION 0.7
FIELDS x y z intensity ring time
SIZE 4 4 4 4 2 4
TYPE F F F F U F
COUNT 1 1 1 1 1 1
WIDTH 933
HEIGHT 1
VIEWPOINT 0 0 0 1 0 0 0
POINTS 933
DATA ascii
3.3619273 -2.5806298 0.22211383 59 9 -0.0085177459
1.3329093 -1.0235169 -0.32666501 2 2 -0.0085154418
3.3733716 -2.5912862 0.37215498 61 10 -0.0085131377
1.6869394 -1.2963063 -0.33695987 2 3 -0.0085108336
3.3648367 -2.5865982 0.52111334 43 11 -0.0085085295
2.2848866 -1.7570597 -0.3539086 2 4 -0.0085062254
3.3651443 -2.5877693 0.67235541 50 12 -0.0085039213
3.3636661 -2.5875669 -0.37128347 55 5 -0.0085016172
3.3762686 -2.5981996 0.82811105 45 13 -0.0084993131
3.1821153 -2.4505587 0.92724824 40 14 -0.008494705
3.3524592 -2.5817411 -0.073858589 48 7 -0.0084924018
3.0622914 -2.3591332 1.0357939 47 15 -0.0084900977
0.90653861 -0.70039994 -0.30695942 5 0 -0.0084693618
3.3594768 -2.5955622 0.074102923 58 8 -0.0084670577
1.0808643 -0.83538687 -0.31538138 4 1 -0.0084647536
3.3671186 -2.603344 0.22305585 56 9 -0.0084624495
1.3417523 -1.0377721 -0.32971796 2 2 -0.0084601454
3.3832154 -2.6176767 0.37424675 61 10 -0.0084578414
1.6888808 -1.3067285 -0.33821136 2 3 -0.0084555373
3.3593807 -2.6001725 0.52160084 46 11 -0.0084532332
2.2790473 -1.764627 -0.3539086 2 4 -0.0084509291
3.3717077 -2.6115963 0.67548412 53 12 -0.008448625
3.3687875 -2.6102755 -0.37285227 45 5 -0.0084463218
3.3831532 -2.6214066 0.83192724 43 13 -0.0084440177
3.1801312 -2.4658742 0.92904782 35 14 -0.0084394095
3.3560674 -2.6032326 -0.074137822 45 7 -0.0084371055
3.0662475 -2.3792825 1.039935 45 15 -0.0084348014
0.91183496 -0.70933306 -0.3095476 5 0 -0.0084140655
3.361443 -2.6158698 0.07434725 55 8 -0.0084117614
1.081017 -0.8415488 -0.31628117 4 1 -0.0084094573
3.3611627 -2.6175361 0.22326522 56 9 -0.0084071532
1.3383033 -1.0422159 -0.32971796 2 2 -0.0084048491
3.3855183 -2.6374526 0.37546691 59 10 -0.008402545
1.6905415 -1.3174729 -0.33946282 2 3 -0.0084002418
3.3690703 -2.6265292 0.5245257 46 11 -0.0083979378
2.2697432 -1.7701299 -0.35342112 2 4 -0.0083956337
3.3641284 -2.6245649 0.67579699 55 12 -0.0083933296
3.3679676 -2.6275601 -0.3737238 40 5 -0.0083910255
3.386364 -2.642863 0.83498025 43 13 -0.0083887214
3.1254296 -2.4409747 0.91555077 19 14 -0.0083841132
3.3564148 -2.6223185 -0.07434725 44 7 -0.0083818091
3.076189 -2.404247 1.0461466 43 15 -0.008379505
0.9123947 -0.71489465 -0.31058288 5 0 -0.0083587691
3.3727512 -2.6436245 0.074801013 57 8 -0.008356465
1.0857406 -0.85132933 -0.31853068 4 1 -0.0083541609
3.3661489 -2.6403465 0.22420727 54 9 -0.0083518578
1.3284782 -1.0420344 -0.32819149 2 2 -0.0083495537
3.3856959 -2.6566336 0.3765128 57 10 -0.0083472496
1.6828247 -1.3209264 -0.33883709 2 3 -0.0083449455
3.3786168 -2.6529846 0.52745056 46 11 -0.0083426414
2.254184 -1.7706846 -0.35195872 2 4 -0.0083403373
3.3627126 -2.6423945 0.67736137 50 12 -0.0083380332
3.3775742 -2.6540728 -0.37581557 43 5 -0.0083357291
3.3786616 -2.6558809 0.83536184 38 13 -0.008333425
3.0954471 -2.4350019 0.90925217 28 14 -0.0083288178
3.3519554 -2.6377289 -0.074451968 45 7 -0.0083265137
3.0677779 -2.4149702 1.0461466 43 15 -0.0083242096
0.90534419 -0.71448475 -0.30902994 5 0 -0.0083034737
3.3650725 -2.6566205 0.074835919 54 8 -0.0083011696
1.0766451 -0.85028297 -0.3167311 4 1 -0.0082988655
3.3683465 -2.6601596 0.22493997 54 9 -0.0082965614
1.3340759 -1.0539677 -0.3304812 2 2 -0.0082942573
3.3795283 -2.6709065 0.37686142 57 10 -0.0082919532
1.6751045 -1.3243424 -0.33821136 2 3 -0.0082896492
3.3786776 -2.6721509 0.52891296 46 11 -0.0082873451
2.2604437 -1.7883958 -0.3539086 2 4 -0.0082850419
3.3663249 -2.6633363 0.67986429 50 12 -0.0082827378
3.3651643 -2.6633735 -0.37546691 35 5 -0.0082804337
3.3432033 -2.6469412 0.82887435 27 13 -0.0082781296
3.1067851 -2.4615247 0.91510093 47 14 -0.0082735214
3.3572962 -2.6600063 -0.074766114 45 7 -0.0082712173
3.0673225 -2.4311297 1.0487348 42 15 -0.0082689133
0.90738153 -0.72124684 -0.31058288 5 0 -0.0082481774
3.3703332 -2.6789637 0.075150065 52 8 -0.0082458733
1.0783954 -0.85748708 -0.31808078 4 1 -0.0082435692
3.3746712 -2.6843348 0.22598669 56 9 -0.0082412651
1.3334612 -1.0610629 -0.33124444 2 2 -0.0082389619
3.3826554 -2.6926138 0.3782559 56 10 -0.0082366578
1.6645215 -1.3249691 -0.33695987 2 3 -0.0082343537
3.3775625 -2.689523 0.5301317 47 11 -0.0082320496
2.2513952 -1.7934084 -0.35342112 1 4 -0.0082297456
3.3724563 -2.6873815 0.68299294 49 12 -0.0082274415
3.3667526 -2.6837971 -0.37668711 33 5 -0.0082251374
3.2683947 -2.6053913 0.81246477 22 13 -0.0082228333
3.1275501 -2.4949033 0.92364907 66 14 -0.0082182251
3.3698728 -2.6891713 -0.075254776 51 7 -0.008215921
3.0708961 -2.4514639 1.052876 42 15 -0.0082136169
0.90347666 -0.72304481 -0.31006524 5 0 -0.0081928819
3.3765714 -2.7032094 0.07549911 56 8 -0.0081905778
1.060185 -0.84906459 -0.31358176 4 1 -0.0081882738
3.3746326 -2.7035909 0.22661473 60 9 -0.0081859697
1.3174934 -1.0558889 -0.32819149 2 2 -0.0081836656
3.3861454 -2.7137845 0.37965041 61 10 -0.0081813615
1.6660514 -1.3357137 -0.33821136 2 3 -0.0081790574
3.380542 -2.7112322 0.5320816 50 11 -0.0081767533
2.2575085 -1.8111942 -0.35537103 1 4 -0.0081744492
3.3753796 -2.7090285 0.68549597 49 12 -0.0081721451
3.3729005 -2.7080064 -0.37843022 31 5 -0.008169841
3.22821 -2.5927656 0.8048324 23 13 -0.0081675369
3.1233795 -2.5094666 0.9249987 66 14 -0.0081629297
3.3760517 -2.7134452 -0.075603828 49 7 -0.0081606256
3.0758698 -2.4730628 1.0575346 38 15 -0.0081583215
0.90984368 -0.73362696 -0.31317106 5 0 -0.0081375856
3.3790927 -2.7256105 0.075778343 53 8 -0.0081352815
1.0585824 -0.85416824 -0.31403166 4 1 -0.0081329774
3.3709173 -2.7209587 0.22703341 56 9 -0.0081306733
1.3013949 -1.0508436 -0.32513854 2 2 -0.0081283692
3.3994279 -2.7449524 0.38226506 61 10 -0.0081260651
1.667291 -1.3467762 -0.33946282 2 3 -0.008123761
3.3829346 -2.7335856 0.53403151 47 11 -0.008121457
2.2323291 -1.8044813 -0.35244617 1 4 -0.0081191538
3.3669641 -2.7226238 0.68580878 48 12 -0.0081168497
3.379992 -2.7341342 -0.38034767 29 5 -0.0081145456
3.2339468 -2.6169298 0.80864859 40 13 -0.0081122415
3.1247637 -2.5294807 0.92814809 68 14 -0.0081076333
3.3738537 -2.7320929 -0.075778343 49 7 -0.0081053292
3.0832977 -2.4976962 1.0632287 42 15 -0.0081030251
0.8921544 -0.72477567 -0.30799466 5 0 -0.0080822892
3.384599 -2.7505889 0.076127395 56 8 -0.0080799852
1.0630051 -0.86418897 -0.31628117 4 1 -0.0080776811
3.3795159 -2.7484174 0.22828946 60 9 -0.008075377
1.3036265 -1.0605623 -0.32666501 2 2 -0.0080730738
3.3924358 -2.759908 0.38261372 61 10 -0.0080707697
1.6746006 -1.3628533 -0.34196579 2 3 -0.0080684656
3.3944447 -2.7635124 0.53744388 50 11 -0.0080661615
2.2503278 -1.8327079 -0.35634598 1 4 -0.0080638574
3.3661513 -2.7424321 0.68768603 48 12 -0.0080615534
3.3792145 -2.7540565 -0.38139355 29 5 -0.0080592493
3.2425928 -2.643652 0.81322795 42 13 -0.0080569452
3.1094306 -2.5359898 0.92634839 61 14 -0.0080523379
3.3700156 -2.7494972 -0.075917974 49 7 -0.0080500338
3.075619 -2.5102015 1.0637463 42 15 -0.0080477297
0.88650215 -0.72559363 -0.30695942 5 0 -0.0080269929
3.3822312 -2.76931 0.076301925 56 8 -0.0080246897
1.058323 -0.86684442 -0.31583127 4 1 -0.0080223856
3.3817792 -2.7709124 0.22912684 58 9 -0.0080200816
1.3088408 -1.0728005 -0.32895473 2 2 -0.0080177775
3.3853786 -2.7748494 0.38296232 60 10 -0.0080154734
1.651264 -1.3539518 -0.33821136 2 3 -0.0080131693
3.3935022 -2.7834888 0.53890634 47 11 -0.0080108652
2.2497339 -1.8459804 -0.35732093 1 4 -0.0080085611
3.3698187 -2.7660308 0.69050181 49 12 -0.0080062579
3.376797 -2.7727454 -0.38226506 24 5 -0.0080039538
3.2495699 -2.6692264 0.81742579 45 13 -0.0080016498
3.1121602 -2.5572672 0.92994767 61 14 -0.0079970416
3.3784528 -2.7770681 -0.076336823 49 7 -0.0079947375
3.073859 -2.5275927 1.0663346 40 15 -0.0079924334
0.89180195 -0.73436075 -0.3095476 5 0 -0.0079774847
3.3786302 -2.7831473 0.076406635 56 8 -0.0079751806
1.0557464 -0.86998069 -0.31583127 4 1 -0.0079728765
3.3951187 -2.7987201 0.23059224 60 9 -0.0079705724
1.2965639 -1.0691848 -0.32666501 2 2 -0.0079682684
3.4017251 -2.8051627 0.38575131 61 10 -0.0079659643
1.6533345 -1.3638734 -0.33946282 2 3 -0.0079636611
3.3882904 -2.796072 0.53939372 47 11 -0.007961357
2.244247 -1.8526474 -0.35732093 1 4 -0.0079590529
3.3829212 -2.7936268 0.69488198 51 12 -0.0079567488
3.3915958 -2.8017859 -0.38487977 31 5 -0.0079544447
3.2537425 -2.6888614 0.82047874 47 13 -0.0079521406
3.1180768 -2.5776641 0.93399686 57 14 -0.0079475325
3.3809853 -2.7960007 -0.076581158 49 7 -0.0079452284
3.0812311 -2.549016 1.0715109 42 15 -0.0079429243
0.89356458 -0.7413249 -0.31110048 5 0 -0.0079221884
3.3853331 -2.8095596 0.076790586 56 8 -0.0079198843
1.0510514 -0.8725996 -0.31538138 4 1 -0.0079175811
3.3909841 -2.8162489 0.23101093 54 9 -0.007915277
1.3167977 -1.0940033 -0.33277091 2 2 -0.0079129729
3.4067459 -2.8303444 0.38749442 61 10 -0.0079106688
1.6574398 -1.3774996 -0.34134007 2 3 -0.0079083648
3.3948107 -2.8224318 0.54207492 45 11 -0.0079060607
2.240494 -1.8633991 -0.35780841 1 4 -0.0079037566
3.3848073 -2.8161139 0.69738495 50 12 -0.0079014525
3.3920236 -2.8231196 -0.38609993 29 5 -0.0078991484
3.2468832 -2.7032812 0.82124197 47 13 -0.0078968443
3.1101055 -2.5903227 0.93444669 50 14 -0.007892237
3.3891509 -2.823734 -0.077000014 48 7 -0.007889933
3.0822556 -2.5689497 1.0751344 42 15 -0.0078876289
0.88491255 -0.73963928 -0.30902994 5 0 -0.007866893
3.3903537 -2.8347754 0.077139638 56 8 -0.0078645889
1.0433615 -0.87269515 -0.31403166 4 1 -0.0078622848
3.3872612 -2.8331945 0.23142964 62 9 -0.0078599807
1.3009255 -1.0885141 -0.32971796 2 2 -0.0078576766
3.408572 -2.8530424 0.38888893 61 10 -0.0078553725
1.655409 -1.3861016 -0.34196579 2 3 -0.0078530684
3.4027042 -2.8501515 0.54499972 43 11 -0.0078507643
2.2218015 -1.8610113 -0.3558585 1 4 -0.0078484612
3.3810134 -2.8329868 0.69863641 49 12 -0.0078461571
3.392837 -2.8439021 -0.38732013 24 5 -0.007843853
3.2554793 -2.7297356 0.82582134 48 13 -0.0078415489
3.080142 -2.5836301 0.92814809 36 14 -0.0078369407
3.3884647 -2.8432593 -0.07720945 49 7 -0.0078346366
3.0895457 -2.5933554 1.0808283 40 15 -0.0078323325
0.88836747 -0.747545 -0.31110048 5 0 -0.0078115966
3.3962328 -2.8588808 0.077488683 56 8 -0.0078092925
1.0419526 -0.87740552 -0.31448159 4 1 -0.0078069889
3.3961802 -2.859849 0.23268569 62 9 -0.0078046848
1.2852964 -1.0827036 -0.32666501 2 2 -0.0078023807
3.4036629 -2.8681815 0.38941187 60 10 -0.0078000766
1.6538241 -1.3941296 -0.34259152 2 3 -0.0077977725
3.4023397 -2.8690979 0.54646218 43 11 -0.0077954689
2.2065129 -1.8606907 -0.3543961 1 4 -0.0077931648
3.3897192 -2.8594677 0.70239085 53 12 -0.0077908607
3.3910007 -2.861562 -0.38819164 22 5 -0.0077885566
3.2539103 -2.7468483 0.82772946 43 13 -0.0077862525
3.0864463 -2.6064034 0.93264711 56 14 -0.0077816448
3.385128 -2.8596423 -0.077349067 50 7 -0.0077793407
3.0853553 -2.6073275 1.0823812 43 15 -0.0077770366
0.8829357 -0.74798954 -0.31006524 5 0 -0.0077563007
3.3897853 -2.8727133 0.077558495 56 8 -0.0077539966
1.047956 -0.88841701 -0.31718099 4 1 -0.0077516926
3.3968391 -2.8807287 0.23341838 58 9 -0.0077493889
1.2936776 -1.0971183 -0.32971796 2 2 -0.0077470848
3.4062877 -2.8897638 0.39080635 58 10 -0.0077447807
1.6401553 -1.3919375 -0.34071434 2 3 -0.0077424766
3.4124794 -2.8970661 0.54963076 48 11 -0.0077401726
2.2090828 -1.8760914 -0.3558585 1 4 -0.0077378689
3.3977823 -2.8866301 0.70614529 51 12 -0.0077355648
3.3885825 -2.8798327 -0.38906324 22 5 -0.0077332607
3.2417915 -2.7550807 0.82696623 37 13 -0.0077309567
3.0906899 -2.6285231 0.93669617 52 14 -0.0077263489
3.3873096 -2.8818071 -0.077628307 50 7 -0.0077240448
3.0806491 -2.6218379 1.0839342 42 15 -0.0077217408
0.88018829 -0.75122058 -0.31006524 5 0 -0.0077010049
3.3919051 -2.8949134 0.077837728 56 8 -0.0076987008
1.0448486 -0.89206958 -0.31718099 4 1 -0.0076963967
3.3989127 -2.9029455 0.23425576 56 9 -0.0076940926
1.2986037 -1.1095042 -0.33200768 2 2 -0.0076917885
3.4047606 -2.9099963 0.39185223 58 10 -0.0076894849
1.626034 -1.3902372 -0.33883709 2 3 -0.0076871808
3.4083812 -2.91412 0.55060571 48 11 -0.0076848767
2.2176063 -1.8966938 -0.35829589 1 4 -0.0076825726
3.399693 -2.9087467 0.7086482 50 12 -0.007680269
3.3921325 -2.9033039 -0.39063203 20 5 -0.0076779649
3.2257071 -2.7618368 0.82543975 36 13 -0.0076756608
3.0958333 -2.652513 0.94119519 52 14 -0.0076710526
3.398489 -2.9118288 -0.078116976 48 7 -0.0076687485
3.0920136 -2.6501758 1.0911812 40 15 -0.0076664449
0.88049066 -0.75680685 -0.31110048 5 0 -0.0076457085
3.404016 -2.9268818 0.078361303 59 8 -0.0076434049
1.0327075 -0.88826859 -0.31448159 4 1 -0.0076411008
3.399358 -2.9239094 0.23498847 52 9 -0.0076387967
1.2857937 -1.1063476 -0.32971796 2 2 -0.0076364926
3.4096825 -2.9348605 0.39359534 58 10 -0.0076341885
1.6241652 -1.3984826 -0.33946282 2 3 -0.0076318849
3.4036937 -2.9317751 0.55158067 49 11 -0.0076295808
2.2196624 -1.9125837 -0.35975835 1 4 -0.0076272767
3.4044836 -2.933491 0.71177691 49 12 -0.0076249726
3.4000869 -2.9307363 -0.39272377 18 5 -0.0076226685
3.2160468 -2.7730799 0.82543975 36 13 -0.0076203649
3.0968833 -2.672215 0.94434458 43 14 -0.0076157567
3.4034441 -2.9367378 -0.078466021 48 7 -0.0076134526
3.1002929 -2.6761007 1.0973928 42 15 -0.0076111485
0.88368618 -0.76493317 -0.31317106 5 0 -0.0075904126
3.403363 -2.9460063 0.078570738 59 8 -0.0075881085
1.0415416 -0.90189356 -0.31808078 4 1 -0.0075858049
3.3981891 -2.9436038 0.23561651 52 9 -0.0075835008
1.281924 -1.110829 -0.32971796 3 2 -0.0075811967
3.4235051 -2.9676251 0.39638433 58 10 -0.0075788926
1.6195186 -1.4038607 -0.33946282 2 3 -0.0075765885
3.4089499 -2.9560511 0.55401808 50 11 -0.0075742849
2.1773193 -1.8887154 -0.3539086 1 4 -0.0075719808
3.398699 -2.9492407 0.71271551 47 12 -0.0075696767
3.4093957 -2.9595659 -0.39498982 18 5 -0.0075673726
3.2216589 -2.7965989 0.82925594 37 13 -0.0075650685
3.095361 -2.6888599 0.94659406 38 14 -0.0075604608
3.3992102 -2.9538467 -0.078605637 45 7 -0.0075581567
3.1069703 -2.7008481 1.1030868 36 15 -0.0075558526
0.87094963 -0.75897503 -0.3095476 5 0 -0.0075351167
3.415669 -2.9775789 0.079094306 56 8 -0.0075328127
1.033981 -0.90168136 -0.3167311 4 1 -0.0075305086
3.3974407 -2.9627326 0.23624454 52 9 -0.0075282049
1.26048 -1.0995867 -0.32513854 3 2 -0.0075259008
3.4166474 -2.9815817 0.39673293 62 10 -0.0075235968
1.6294894 -1.4224962 -0.34259152 2 3 -0.0075212927
3.4150589 -2.9822958 0.55669922 52 11 -0.0075189886
2.188653 -1.9119762 -0.35683349 1 4 -0.0075166849
3.3978262 -2.9682927 0.71459275 47 12 -0.0075143808
3.3935616 -2.9656115 -0.39429256 18 5 -0.0075120768
3.2266579 -2.820749 0.83307213 38 13 -0.0075097727
3.1050231 -2.7163284 0.95244277 35 14 -0.0075051645
3.395416 -2.9703691 -0.078745253 48 7 -0.0075028609
3.1038117 -2.7162251 1.1051573 38 15 -0.0075005568
0.86248702 -0.7569136 -0.30747706 5 0 -0.0074798209
3.4102852 -2.9928465 0.079199016 56 8 -0.0074775168
1.0368429 -0.91024774 -0.31853068 4 1 -0.0074752127
3.4110889 -2.9956601 0.23791927 55 9 -0.0074729086
1.2684335 -1.1143459 -0.32819149 3 2 -0.007470605
3.4151983 -3.0013812 0.39777881 58 10 -0.0074683009
1.6217959 -1.425284 -0.34196579 2 3 -0.0074659968
3.4215496 -3.0080218 0.55938035 49 11 -0.0074636927
2.2150948 -1.9480641 -0.36219573 1 4 -0.0074613886
3.3993092 -2.9905734 0.71709567 48 12 -0.0074590845
3.4071198 -2.9984996 -0.39708155 18 5 -0.0074567809
3.2290771 -2.84181 0.83612514 36 13 -0.0074544768
3.113548 -2.7420659 0.95784163 39 14 -0.0074498686
3.4030325 -2.9980659 -0.079164118 48 7 -0.007447565
3.1015584 -2.7334297 1.1077455 33 15 -0.0074452609
0.8672111 -0.76616496 -0.31006524 5 0 -0.007424525
3.4103057 -3.0140018 0.07944335 59 8 -0.0074222209
1.0307394 -0.91127992 -0.31763089 4 1 -0.0074199168
3.4200609 -3.0247502 0.23928 59 9 -0.0074176127
1.2764961 -1.1289512 -0.33124444 3 2 -0.0074153086
3.4201488 -3.0258923 0.39952192 60 10 -0.0074130045
1.6049768 -1.4204631 -0.33946282 2 3 -0.0074107009
3.4199467 -3.0278418 0.56084275 49 11 -0.0074083968
2.226114 -1.971578 -0.36512056 1 4 -0.0074060927
3.4080706 -3.0194507 0.72116297 49 12 -0.0074037886
3.4115427 -3.0235891 -0.39882466 18 5 -0.0074014845
3.2294221 -2.862179 0.83879644 31 13 -0.0073991809
3.1156209 -2.7632618 0.9614408 39 14 -0.0073945727
3.407505 -3.0231979 -0.079513162 48 7 -0.0073922686
3.1064465 -2.7570627 1.112922 38 15 -0.0073899645
0.86439723 -0.76933819 -0.31006524 5 0 -0.0073692286
3.4191833 -3.0431707 0.079897113 57 8 -0.0073669245
1.0159085 -0.90450549 -0.31403166 4 1 -0.0073646209
3.415448 -3.0419838 0.23969871 61 9 -0.0073623168
1.2635547 -1.1257863 -0.32895473 3 2 -0.0073600127
3.4268839 -3.0543151 0.40161365 60 10 -0.0073577086
1.6115553 -1.4368528 -0.34196579 2 3 -0.0073554046
3.418247 -3.0476878 0.56230521 50 11 -0.0073531009
2.1895893 -1.9529103 -0.36024579 1 4 -0.0073507968
3.4078279 -3.0405338 0.72335303 48 12 -0.0073484927
3.4202914 -3.0527265 -0.40109071 16 5 -0.0073461886
3.2364838 -2.8896873 0.8433758 31 13 -0.0073438846
3.1141913 -2.7824528 0.96414024 39 14 -0.0073392768
3.4178081 -3.0537264 -0.080001831 52 7 -0.0073369727
3.1083264 -2.7781885 1.117063 38 15 -0.0073346687
0.87033784 -0.78008723 -0.31317106 5 0 -0.0073139328
3.4258726 -3.0717018 0.080315977 57 8 -0.0073116287
1.01984 -0.91472888 -0.31628117 4 1 -0.0073093246
3.416168 -3.0651519 0.24053608 59 9 -0.0073070209
1.2625399 -1.132812 -0.32971796 3 2 -0.0073047169
3.4369597 -3.0848904 0.40405402 61 10 -0.0073024128
1.5977107 -1.4345508 -0.34008855 2 3 -0.0073001087
3.4218216 -3.0734606 0.56474262 49 11 -0.0072978046
2.1617446 -1.9423481 -0.35683349 1 4 -0.0072955005
3.4069448 -3.0622475 0.72554308 50 12 -0.0072931969
3.425914 -3.0792975 -0.40300813 18 5 -0.0072908928
3.243896 -2.916719 0.84795523 28 13 -0.0072885887
3.107357 -2.7959135 0.96504009 37 14 -0.007283981
3.4065926 -3.0662329 -0.080001831 52 7 -0.0072816769
3.1210933 -2.810245 1.1253452 42 15 -0.0072793728
0.85470295 -0.77147084 -0.3085123 5 0 -0.0072586369
3.4359083 -3.1024029 0.080804639 65 8 -0.0072563328
1.0253177 -0.92612058 -0.3189806 4 1 -0.0072540287
3.4217484 -3.0917869 0.24168746 55 9 -0.0072517246
1.2644045 -1.1424772 -0.33124444 3 2 -0.0072494205
3.437995 -3.1075571 0.40544853 61 10 -0.0072471169
1.5926934 -1.440119 -0.34008855 2 3 -0.0072448128
3.4287391 -3.1013656 0.56766742 48 11 -0.0072425087
2.1637828 -1.9578735 -0.35829589 1 4 -0.0072402046
3.4064867 -3.083401 0.72773325 48 12 -0.007237901
3.4107132 -3.0872264 -0.40248519 16 5 -0.0072355969
3.2453372 -2.938566 0.85100812 28 13 -0.0072332928
3.1177959 -2.825062 0.97133869 39 14 -0.0072286846
3.4136479 -3.0942214 -0.080420688 52 7 -0.0072263805
3.1069715 -2.8172295 1.1237923 38 15 -0.0072240769
0.85057515 -0.77315021 -0.30799466 5 0 -0.0072033405
3.426538 -3.1157236 0.080839552 63 8 -0.0072010369
1.0249618 -0.93231654 -0.3198804 4 1 -0.0071987328
3.4277294 -3.1179006 0.24283887 60 9 -0.0071964287
1.2604089 -1.1468838 -0.33124444 3 2 -0.0071941246
3.4300737 -3.1222208 0.40579712 61 10 -0.0071918205
1.5876569 -1.4456699 -0.34008855 2 3 -0.0071895169
3.4355028 -3.1293566 0.57059228 48 11 -0.0071872128
2.1804123 -1.9868069 -0.36219573 1 4 -0.0071849087
3.4181449 -3.1146374 0.73242623 54 12 -0.0071826046
3.4131684 -3.1111929 -0.40405402 14 5 -0.0071803005
3.2437642 -2.9578137 0.85329783 26 13 -0.0071779969
3.1194315 -2.8464363 0.97493786 39 14 -0.0071733887
3.4151855 -3.1163073 -0.080699928 52 7 -0.0071710846
3.106173 -2.8353317 1.1268982 35 15 -0.0071687805
0.84929627 -0.77741891 -0.3085123 5 0 -0.0071480446
3.4279871 -3.1378708 0.081118785 58 8 -0.0071457406
1.0089295 -0.9238658 -0.31583127 4 1 -0.0071434369
3.4330254 -3.1446862 0.24399024 58 9 -0.0071411328
1.253503 -1.1486238 -0.3304812 3 2 -0.0071388287
3.4426534 -3.1557159 0.40858611 63 10 -0.0071365247
1.5828542 -1.4509268 -0.34008855 2 3 -0.0071342206
3.4338849 -3.1487815 0.57205474 45 11 -0.0071319165
2.153332 -1.9752403 -0.35878339 1 4 -0.0071296128
3.4261727 -3.1439118 0.73649353 50 12 -0.0071273088
3.411094 -3.1311724 -0.4050999 12 5 -0.0071250047
3.239723 -2.9738646 0.8548243 26 13 -0.0071227006
3.1286323 -2.8739033 0.98078656 35 14 -0.0071180928
3.4190116 -3.1417398 -0.081048973 49 7 -0.0071157888
3.1190133 -2.8670752 1.1351804 38 15 -0.0071134847
0.85239619 -0.78546739 -0.31058288 5 0 -0.0070927488
3.4346569 -3.1660817 0.081537649 58 8 -0.0070904447
1.0042658 -0.92606103 -0.31538138 4 1 -0.0070881406
3.4308357 -3.1647756 0.24461828 56 9 -0.0070858365
1.246801 -1.1501119 -0.32971796 3 2 -0.0070835329
3.4497404 -3.1833289 0.41067785 61 10 -0.0070812288
1.586489 -1.4644825 -0.34196579 2 3 -0.0070789247
3.43454 -3.1715224 0.57400465 46 11 -0.0070766206
2.1493399 -1.9854385 -0.35927087 1 4 -0.007074317
3.4325876 -3.1719403 0.74024802 51 12 -0.0070720129
3.4162366 -3.1579368 -0.40701729 12 5 -0.0070697088
3.2509475 -3.0051453 0.86054862 31 13 -0.0070674047
3.1300261 -2.8953931 0.98438585 37 14 -0.0070627965
3.4300394 -3.1740282 -0.081572548 47 7 -0.0070604929
3.1288335 -2.8963175 1.1424273 35 15 -0.0070581888
0.85375917 -0.79252928 -0.31213579 5 0 -0.0070374529
3.436774 -3.1902955 0.08185178 54 8 -0.0070351488
1.0138792 -0.94149524 -0.3194305 4 1 -0.0070328447
3.430011 -3.1862473 0.24535099 51 9 -0.0070305406
1.2425772 -1.1546739 -0.32971796 3 2 -0.007028237
3.4555612 -3.2122295 0.41276959 57 10 -0.0070259329
1.5782176 -1.467597 -0.34134007 2 3 -0.0070236288
3.4350781 -3.1943066 0.57595456 48 11 -0.0070213247
2.1511171 -2.0010412 -0.36073327 1 4 -0.0070190206
3.4243863 -3.1865938 0.74087369 51 12 -0.0070167165
3.415401 -3.1793454 -0.40823749 10 5 -0.0070144129
3.2542789 -3.0304191 0.8643648 31 13 -0.0070121088
3.1222441 -2.9095027 0.98528558 35 14 -0.0070075006
3.4277167 -3.1941614 -0.081781976 45 7 -0.0070051965
3.1300097 -2.9177601 1.1465684 35 15 -0.0070028929
0.8439312 -0.78890842 -0.3095476 5 0 -0.006982157
3.4396636 -3.2165287 0.082200833 52 8 -0.0069798529
1.0161141 -0.95053023 -0.32123011 4 1 -0.0069775488
3.4349122 -3.2132096 0.24650237 49 9 -0.0069752447
1.2399726 -1.1603459 -0.33009958 3 2 -0.0069729406
3.4472363 -3.2269952 0.41311821 55 10 -0.0069706365
1.5788524 -1.478498 -0.34259152 2 3 -0.0069683325
3.4436295 -3.2258749 0.57936692 49 11 -0.0069660288
2.1466656 -2.011627 -0.36122078 1 4 -0.0069637247
3.4247735 -3.2093339 0.74337667 48 12 -0.0069614206
3.4130039 -3.1994236 -0.40928334 10 5 -0.0069591166
3.2608664 -3.0578763 0.86894423 32 13 -0.0069568129
3.1277003 -2.9350524 0.99023461 35 14 -0.0069522047
3.4209206 -3.210212 -0.081886694 43 7 -0.0069499006
3.1240313 -2.9326344 1.1481214 33 15 -0.0069475966
0.83273238 -0.78390443 -0.30644175 5 0 -0.0069268607
3.4377148 -3.2361417 0.082410261 56 8 -0.0069245566
1.0030255 -0.94454259 -0.31808078 4 1 -0.0069222525
3.4411204 -3.2416143 0.24775843 56 9 -0.0069199488
1.2316283 -1.1606277 -0.32895473 3 2 -0.0069176448
3.4446499 -3.2472088 0.4141641 63 10 -0.0069153407
1.5710663 -1.4810156 -0.34196579 2 3 -0.0069130366
3.447355 -3.2508957 0.58180428 48 11 -0.0069107329
2.1255434 -2.0051129 -0.35878339 1 4 -0.0069084289
3.4322269 -3.238894 0.74744397 52 12 -0.0069061248
3.4047127 -3.2140532 -0.409632 8 5 -0.0069038207
3.2492802 -3.0673246 0.86856258 27 13 -0.0069015166
3.1306996 -2.9574518 0.99428362 33 14 -0.0068969089
3.4329491 -3.2441089 -0.082445174 46 7 -0.0068946048
3.1165829 -2.9461756 1.1491566 33 15 -0.0068923007
0.83713949 -0.7933057 -0.30902994 5 0 -0.0068715648
3.4351051 -3.256376 0.082619689 58 8 -0.0068692607
0.98416793 -0.93328786 -0.31313187 4 1 -0.0068669566
3.4442744 -3.2673514 0.24880517 61 9 -0.006864653
1.2420161 -1.1782172 -0.33277091 3 2 -0.0068623489
3.4569862 -3.2805572 0.41695309 63 10 -0.0068600448
1.5544257 -1.4756105 -0.33946282 2 3 -0.0068577407
3.4417439 -3.2683773 0.58277923 46 11 -0.0068554366
2.1444371 -2.0371296 -0.36317068 1 4 -0.0068531325
3.4380832 -3.2671838 0.75119835 52 12 -0.0068508289
3.4315867 -3.2610104 -0.4141641 6 5 -0.0068485248
3.2527826 -3.0921748 0.87237877 28 13 -0.0068462207
3.1373005 -2.9844799 0.99968249 35 14 -0.006841613
3.4346414 -3.2684793 -0.082759313 50 7 -0.0068393089
3.1286674 -2.9783487 1.1574388 35 15 -0.0068370048
0.83855802 -0.80022418 -0.31058288 5 0 -0.0068162689
3.4410744 -3.2849166 0.083038554 56 8 -0.0068139648
0.99358833 -0.94883025 -0.31718099 4 1 -0.0068116607
3.4415133 -3.2876325 0.24943319 59 9 -0.0068093566
1.2364762 -1.1811894 -0.3323893 3 2 -0.0068070525
3.4541564 -3.3008635 0.41799891 58 10 -0.0068047484
1.5549771 -1.4864876 -0.34071434 2 3 -0.0068024448
3.4403574 -3.2899749 0.58448541 26 11 -0.0068001407
2.1172309 -2.0253918 -0.35975835 1 4 -0.0067978366
3.4452109 -3.2969198 0.75526565 54 12 -0.006795533
3.4331381 -3.2853665 -0.41573292 4 5 -0.0067932289
3.2618239 -3.1225171 0.87772143 28 13 -0.0067909248
3.1282706 -2.9967608 1.0001323 33 14 -0.0067863166
3.437649 -3.2942841 -0.083108358 30 7 -0.0067840125
3.1349864 -3.0052941 1.1636505 35 15 -0.0067817084
0.83854556 -0.80582368 -0.31161815 5 0 -0.0067609726
0.99448407 -0.95634496 -0.31853068 4 1 -0.0067563648
3.4285772 -3.2982411 0.24932852 19 9 -0.0067540607
1.2337602 -1.1868594 -0.33277091 3 2 -0.0067517566
1.5583173 -1.5001262 -0.34259152 2 3 -0.0067471489
2.1130073 -2.0355244 -0.36024579 1 4 -0.0067425407
3.445061 -3.3198919 0.75776863 54 12 -0.0067402367
2.2007587 -2.1207986 -0.2673938 1 5 -0.0067379326
3.2678652 -3.1502342 0.88230079 28 13 -0.0067356285
3.1304138 -3.0198393 1.0041815 35 14 -0.0067310208
3.1383765 -3.0296359 1.1688268 38 15 -0.0067264126
0.83017462 -0.80337203 -0.3095476 5 0 -0.0067056767
2.1005466 -2.0334394 0.051030833 5 8 -0.0067033726
0.98554015 -0.95438796 -0.3167311 4 1 -0.006701069
2.1073201 -2.0414224 0.15376306 4 9 -0.0066987649
1.2253795 -1.1870608 -0.33162606 3 2 -0.0066964608
2.1003959 -2.0354249 0.25588927 6 10 -0.0066941567
1.5502348 -1.5028068 -0.34196579 2 3 -0.0066918526
2.1048207 -2.0411384 0.36000207 4 11 -0.0066895485
2.093066 -2.0304477 -0.35805216 3 4 -0.0066872449
3.4433744 -3.3415265 0.75995874 52 12 -0.0066849408
2.1104128 -2.047991 -0.25728375 4 5 -0.0066826367
3.276571 -3.1807671 0.88764352 27 13 -0.0066803326
3.136627 -3.0470424 1.0095804 35 14 -0.0066757249
2.0851662 -2.0263197 -0.0507516 6 7 -0.0066734208
3.1402488 -3.0526922 1.1734856 36 15 -0.0066711167
0.82459807 -0.80356842 -0.3085123 5 0 -0.006635665
2.087708 -2.035176 0.050891217 7 8 -0.0066333609
0.9905737 -0.9659856 -0.3194305 4 1 -0.0066310568
2.0890996 -2.0372436 0.15292569 6 9 -0.0066287532
1.222634 -1.1927018 -0.33200768 3 2 -0.0066264491
2.0932782 -2.0427444 0.25588927 7 10 -0.006624145
1.5562878 -1.5192479 -0.34446874 2 3 -0.0066218409
2.099103 -2.0498598 0.36024579 3 11 -0.0066195368
2.0859654 -2.0377417 -0.35805216 4 4 -0.0066172332
3.4492316 -3.3694916 0.76371318 52 12 -0.0066149291
2.0961263 -2.0483828 -0.25641218 5 5 -0.006612625
3.2738709 -3.2004192 0.88993317 26 13 -0.0066103209
3.1412947 -3.0729625 1.0145292 36 14 -0.0066057132
2.0770056 -2.0318248 -0.050716694 8 7 -0.0066034091
3.1383927 -3.0711956 1.1765914 36 15 -0.006601105
0.82178813 -0.8064419 -0.3085123 5 0 -0.0065803691
2.0695298 -2.0308831 0.050611977 10 8 -0.006578065
0.98597437 -0.96789998 -0.3189806 4 1 -0.0065757609
2.0805504 -2.043124 0.152821 9 9 -0.0065734568
1.2128609 -1.1914591 -0.3304812 3 2 -0.0065711532
2.0790296 -2.0430565 0.2550177 9 10 -0.0065688491
1.5371518 -1.5105548 -0.34134007 2 3 -0.006566545
2.0823848 -2.0470681 0.35853964 4 11 -0.0065642409
2.0891042 -2.0543909 -0.35975835 4 4 -0.0065619368
3.4585717 -3.4022903 0.76840615 46 12 -0.0065596332
2.0719223 -2.0389175 -0.25432047 8 5 -0.0065573291
3.2674382 -3.2153893 0.89107805 28 13 -0.006555025
3.1505265 -3.1025052 1.0208279 38 14 -0.0065504168
2.0713253 -2.0404661 -0.0507516 41 7 -0.0065481132
3.1400368 -3.0943356 1.1812501 35 15 -0.0065458091
0.82598096 -0.81595081 -0.31110048 5 0 -0.0065250727
2.0823412 -2.0577731 0.051100649 8 8 -0.0065227691
0.97288853 -0.96174568 -0.31583127 4 1 -0.006520465
2.0691454 -2.0461609 0.15250699 6 9 -0.0065181609
1.220071 -1.2065181 -0.33353412 3 2 -0.0065158568
2.0878236 -2.0653527 0.25693512 6 10 -0.0065135527
1.5402942 -1.5242481 -0.34321725 2 3 -0.0065112491
2.0766373 -2.0557213 0.35878339 18 11 -0.006508945
2.0790994 -2.058877 -0.35927087 2 4 -0.0065066409
3.4635153 -3.431025 0.77216065 45 12 -0.0065043368
2.0987575 -2.0797956 -0.25850391 3 5 -0.0065020327
3.2757177 -3.2461221 0.89642078 30 13 -0.0064997291
3.1548986 -3.1285782 1.0257769 38 14 -0.0064951209
2.0627701 -2.0462756 -0.050716694 4 7 -0.0064928168
3.1484141 -3.1243281 1.1884971 35 15 -0.0064905128
0.8188768 -0.81488472 -0.3095476 5 0 -0.0064697769
2.070893 -2.0607975 0.050995931 4 8 -0.0064674728
0.98333639 -0.97888422 -0.32033029 4 1 -0.0064651691
2.0690665 -2.0604177 0.15303035 6 9 -0.006462865
1.2045135 -1.1998974 -0.3304812 3 2 -0.006460561
2.0393124 -2.0322061 0.25188008 4 10 -0.0064582569
1.5346972 -1.5298834 -0.34321725 2 3 -0.0064559528
2.0596073 -2.0531471 0.35707721 6 11 -0.0064536491
2.0972013 -2.0913529 -0.36365816 2 4 -0.006451345
3.4599085 -3.4514647 0.77403784 44 12 -0.006449041
2.1944373 -2.189846 -0.27122867 1 5 -0.0064467369
3.2790816 -3.2733636 0.90061849 27 13 -0.0064444328
3.1392746 -3.1359885 1.0244272 36 14 -0.0064398251
3.4646947 -3.4610679 -0.08548189 24 7 -0.006437521
3.1566205 -3.1544173 1.195744 31 15 -0.0064352169
0.81739199 -0.81910563 -0.31006524 5 0 -0.006414481
3.4770079 -3.4855142 0.085935652 72 8 -0.0064121769
0.97286183 -0.97558224 -0.31808078 4 1 -0.0064098728
2.0914783 -2.0973268 0.15522847 14 9 -0.0064075692
1.2003177 -1.2040945 -0.3304812 3 2 -0.0064052651
1.5293475 -1.5352311 -0.34321725 2 3 -0.0064006569
2.0478663 -2.0564623 0.35634598 6 11 -0.0063983528
2.0979247 -2.1074665 -0.36512056 2 4 -0.0063960492
3.4631696 -3.4789205 0.77747941 52 12 -0.0063937451
2.2233198 -2.2342117 -0.27576074 21 5 -0.006391441
3.2676356 -3.2847896 0.90061849 23 13 -0.0063891369
3.1420474 -3.160748 1.0289261 36 14 -0.0063845292
3.4638703 -3.4844866 -0.085761122 42 7 -0.0063822251
3.1483133 -3.1681571 1.1967793 31 15 -0.006379921
0.80908853 -0.81646508 -0.30799466 5 0 -0.0063591851
3.4724681 -3.504127 0.086110167 51 8 -0.006356881
0.96962124 -0.9788031 -0.31808078 4 1 -0.0063545769
2.011066 -2.0308185 0.14978553 6 9 -0.0063522728
1.193345 -1.2054865 -0.32971796 3 2 -0.0063499687
2.0811327 -2.1030412 0.25885254 25 10 -0.0063476651
1.5159113 -1.5318695 -0.34134007 2 3 -0.006345361
2.0382435 -2.0604193 0.3558585 6 11 -0.0063430569
2.0546339 -2.0777133 -0.35878339 1 4 -0.0063407528
3.4690583 -3.5092504 0.78154671 48 12 -0.0063384492
3.2180855 -3.2565072 0.88993317 16 13 -0.006333841
3.1520877 -3.1919491 1.0356746 32 14 -0.0063292328
3.1535187 -3.1956284 1.202991 29 15 -0.0063246251
0.8172186 -0.8301574 -0.31213579 5 0 -0.0063038887
3.4714365 -3.5276294 0.086389415 21 8 -0.0063015851
0.97439855 -0.99051702 -0.32078022 4 1 -0.006299281
2.0025644 -2.0364017 0.14968085 25 9 -0.0062969769
1.2031064 -1.2234354 -0.33353412 3 2 -0.0062946728
2.0741475 -2.1099308 0.25885254 18 10 -0.0062923688
1.5188622 -1.5456054 -0.34321725 2 3 -0.0062900651
2.0226922 -2.0590253 0.3543961 6 11 -0.006287761
2.0668406 -2.1047015 -0.36219573 1 4 -0.0062854569
3.4720092 -3.5368445 0.78498822 50 12 -0.0062831528
3.4712055 -3.5360258 -0.43351269 4 5 -0.0062808488
3.1860728 -3.2467017 0.88420898 18 13 -0.0062785451
3.1573 -3.2196288 1.0410734 32 14 -0.0062739369
2.1795843 -2.2233884 -0.054346792 21 7 -0.0062716329
3.1531613 -3.2176545 1.207132 33 15 -0.0062693288
0.81431592 -0.83300483 -0.31213579 5 0 -0.0062485929
0.96004093 -0.98276037 -0.31718099 4 1 -0.0062439851
3.4759791 -3.5594819 0.26073778 44 9 -0.0062416811
1.2125449 -1.2416737 -0.33735034 3 2 -0.006239377
3.4961116 -3.5813477 0.43787044 55 10 -0.0062370729
1.5106984 -1.5480703 -0.34259152 2 3 -0.0062347688
2.0085616 -2.0589683 0.3531774 5 11 -0.0062324652
2.0373065 -2.089164 -0.35829589 1 4 -0.0062301611
3.4817047 -3.5715744 0.78999412 52 12 -0.006227857
3.4769213 -3.5666676 -0.43577868 6 5 -0.0062255529
3.2007539 -3.2845185 0.8914597 45 13 -0.0062232488
3.1555591 -3.2404029 1.0442228 36 14 -0.0062186411
3.4927506 -3.5879135 -0.087401658 14 7 -0.006216337
3.1634676 -3.2507937 1.2154143 31 15 -0.0062140329
0.81140316 -0.83584225 -0.31213579 5 0 -0.006193297
3.542815 -3.6507978 0.088797845 2 8 -0.0061909929
0.95660454 -0.98610562 -0.31718099 3 1 -0.0061886888
1.1972694 -1.2346234 -0.33429739 3 2 -0.0061840811
3.4988437 -3.6092658 0.43978783 55 10 -0.006181777
1.5080351 -1.5561713 -0.34321725 2 3 -0.0061794729
1.9958373 -2.0602639 0.35220242 6 11 -0.0061771688
2.0524666 -2.1187212 -0.36219573 1 4 -0.0061748652
3.4808357 -3.5944531 0.79249716 52 12 -0.0061725611
3.4907796 -3.6059813 -0.43909061 6 5 -0.006170257
3.215209 -3.3224766 0.89871037 45 13 -0.0061679529
3.1569903 -3.2634556 1.0482719 32 14 -0.0061633447
3.4989049 -3.6181636 -0.087855421 17 7 -0.0061610411
3.1647544 -3.2737668 1.220073 33 15 -0.006158737
0.80326295 -0.83296603 -0.31006524 5 0 -0.0061380011
3.5043197 -3.6351724 0.088134654 82 8 -0.006135697
0.95468146 -0.99067563 -0.31763089 4 1 -0.0061333929
2.1453848 -2.2262719 0.16203214 28 9 -0.0061310888
1.1822722 -1.2272756 -0.33124444 3 2 -0.0061287852
1.5001262 -1.5583173 -0.34259152 2 3 -0.006124177
1.9903708 -2.0683014 0.35244617 6 11 -0.0061218729
2.0179002 -2.0969086 -0.35732093 1 4 -0.0061195688
3.4880693 -3.6259067 0.79687726 50 12 -0.0061172647
3.4843268 -3.6232817 -0.43978783 6 5 -0.0061149611
3.216419 -3.3458583 0.90214497 45 13 -0.006112657
3.1623545 -3.2907674 1.0536706 32 14 -0.0061080488
3.4882729 -3.6311882 -0.08789032 29 7 -0.0061057452
3.1685996 -3.2995706 1.225767 33 15 -0.0061034411
0.80316901 -0.83841515 -0.31110048 5 0 -0.0060827052
3.4977782 -3.6525502 0.08827427 53 8 -0.0060804011
0.96217167 -1.0050976 -0.32123011 4 1 -0.006078097
3.4894812 -3.6464331 0.26450595 35 9 -0.0060757929
1.1809107 -1.2340264 -0.33200768 3 2 -0.0060734889
2.1829586 -2.2819421 0.27628368 23 10 -0.0060711848
1.4949504 -1.5632833 -0.34259152 2 3 -0.0060688811
1.9835013 -2.0748901 0.35244617 6 11 -0.006066577
2.0297687 -2.1240315 -0.36073327 1 4 -0.006064273
3.490401 -3.6537719 0.80031884 46 12 -0.0060619689
3.4640353 -3.6261721 -0.43874201 4 5 -0.0060596648
3.2147973 -3.3664448 0.90481627 46 13 -0.0060573611
3.1710286 -3.3229332 1.0604193 34 14 -0.006052753
3.4852378 -3.6534708 -0.088134654 27 7 -0.0060504489
3.1677284 -3.3217962 1.2299082 31 15 -0.0060481448
0.79890603 -0.83981401 -0.31058288 5 0 -0.0060274089
3.4918969 -3.6719828 0.0884488 55 8 -0.0060251048
0.94657344 -0.99573857 -0.31718099 4 1 -0.0060228012
3.4891136 -3.6716216 0.26544797 55 9 -0.0060204971
1.1820055 -1.2438337 -0.33353412 3 2 -0.006018193
2.2230079 -2.3401062 0.2823846 10 10 -0.0060158889
1.4840435 -1.5627626 -0.34134007 2 3 -0.0060135848
1.9639461 -2.0688438 0.35025251 6 11 -0.0060112812
2.0387394 -2.1483831 -0.36365816 1 4 -0.0060089771
3.4912205 -3.6802652 0.80344748 44 12 -0.006006673
3.4170754 -3.6021051 -0.4343842 9 5 -0.0060043689
3.2138338 -3.3890429 0.90786928 44 13 -0.0060020648
3.1728146 -3.3481266 1.0649183 34 14 -0.0059974571
3.4325821 -3.6235144 -0.087122411 48 7 -0.005995153
3.1720541 -3.3496652 1.2361197 31 15 -0.0059928489
0.7919898 -0.83838457 -0.30902994 5 0 -0.005972113
3.406292 -3.6070933 0.086598843 76 8 -0.0059698089
0.93506563 -0.99053425 -0.31448159 3 1 -0.0059675048
3.4049962 -3.6082439 0.26000506 70 9 -0.0059652012
1.1803514 -1.2508078 -0.33429739 3 2 -0.0059628971
2.2462709 -2.3811853 0.28639376 11 10 -0.005960593
1.4840002 -1.5736818 -0.34259152 2 3 -0.0059582889
1.9539893 -2.072798 0.34976503 6 11 -0.0059559848
2.0148907 -2.1381502 -0.36073327 1 4 -0.0059536807
3.4065642 -3.6162229 0.78686547 71 12 -0.0059513771
3.394918 -3.6038597 -0.43316403 13 5 -0.005949073
3.2019846 -3.4002404 0.90786928 37 13 -0.0059467689
3.1731279 -3.3719544 1.0689675 34 14 -0.0059421612
3.3979902 -3.61217 -0.08656393 72 7 -0.0059398571
3.1735766 -3.3747909 1.2412962 33 15 -0.005937553
0.7983104 -0.85100663 -0.31265342 5 0 -0.0059168171
3.3800015 -3.6043754 0.086249799 70 8 -0.005914513
0.94492996 -1.0080096 -0.3189806 3 1 -0.0059122089
3.3759918 -3.6026192 0.25874901 72 9 -0.0059099048
1.1665809 -1.2448925 -0.33162606 3 2 -0.0059076007
2.2515664 -2.4035525 0.2881369 11 10 -0.0059052971
1.4757978 -1.5759686 -0.34196579 2 3 -0.005902993
1.9399589 -2.07236 0.34854636 6 11 -0.0059006889
2.0155532 -2.153867 -0.36219573 1 4 -0.0058983848
3.3709795 -3.6035678 0.78154671 61 12 -0.0058960812
3.3768735 -3.6098683 -0.4324668 13 5 -0.0058937771
3.1860728 -3.4070947 0.90672439 31 13 -0.005891473
3.1719823 -3.3944008 1.0725666 34 14 -0.0058868648
3.3607893 -3.5977056 -0.085935652 66 7 -0.0058845608
3.1855097 -3.4112632 1.2506137 29 15 -0.0058822571
0.78743434 -0.84530681 -0.3095476 5 0 -0.0058615208
3.3619478 -3.6102974 0.086110167 74 8 -0.0058592171
0.94538891 -1.0155809 -0.32033029 4 1 -0.005856913
3.3565929 -3.6070707 0.25822562 75 9 -0.005854609
1.1608909 -1.2475196 -0.33124444 3 2 -0.0058523049
2.2580898 -2.4274437 0.29005429 6 10 -0.0058500008
1.4810489 -1.5926832 -0.34446874 2 3 -0.0058476971
1.9232522 -2.0689416 0.3468402 6 11 -0.0058453931
1.9945098 -2.1463478 -0.35975835 1 4 -0.005843089
3.3530028 -3.609524 0.78029525 66 12 -0.0058407849
3.34798 -3.6041169 -0.43037504 13 5 -0.0058384808
3.1875198 -3.4325819 0.91054058 33 13 -0.0058361772
3.1746955 -3.4211655 1.0775156 31 14 -0.005831569
3.3346114 -3.5947549 -0.0855866 64 7 -0.0058292649
3.1867187 -3.4365273 1.2557901 28 15 -0.0058269608
0.78579068 -0.84946847 -0.31006524 5 0 -0.0058062249
3.3357487 -3.6073291 0.085761122 70 8 -0.0058039208
0.93522412 -1.0117197 -0.31808078 3 1 -0.0058016172
3.3372042 -3.6114311 0.25770226 72 9 -0.0057993131
1.1565292 -1.2515643 -0.33124444 3 2 -0.005797009
2.2523067 -2.4382386 0.29040295 25 10 -0.0057947049
1.459399 -1.5804284 -0.34071434 2 3 -0.0057924008
1.9240974 -2.084394 0.3483026 6 11 -0.0057900967
1.99239 -2.1591325 -0.36073327 1 4 -0.0057877931
3.3296676 -3.6095898 0.77779222 68 12 -0.005785489
3.3205187 -3.5996721 -0.42845765 12 5 -0.0057831849
3.1888273 -3.4581206 0.91435677 34 13 -0.0057808808
3.1838624 -3.4551554 1.0847139 31 14 -0.0057762731
3.320688 -3.604902 -0.085551701 66 7 -0.005773969
3.186481 -3.4604206 1.2604488 28 15 -0.0057716649
0.78804815 -0.8578971 -0.31213579 5 0 -0.005750929
3.3163741 -3.6115866 0.0855866 52 8 -0.0057486249
0.92905122 -1.0121069 -0.31718099 3 1 -0.0057463208
3.3299789 -3.6289446 0.25812095 60 9 -0.0057440167
1.1574628 -1.26138 -0.33277091 3 2 -0.0057417131
2.2761054 -2.4813232 0.29458639 23 10 -0.005739409
1.4645537 -1.5971603 -0.34321725 2 3 -0.0057371049
1.9074203 -2.0808544 0.34659645 3 11 -0.0057348008
1.9741126 -2.1543658 -0.35878339 1 4 -0.0057324972
3.314379 -3.6182775 0.77716655 42 12 -0.0057301931
3.2850552 -3.5862648 -0.42549434 8 5 -0.005727889
3.1873436 -3.480814 0.91740966 27 13 -0.0057255849
3.1902003 -3.4863758 1.0910126 29 14 -0.0057209767
3.3080845 -3.6164713 -0.085551701 52 7 -0.0057186731
3.1913302 -3.4900558 1.2671782 29 15 -0.005716369
0.78244495 -0.85778803 -0.31110048 5 0 -0.0056956331
3.2970099 -3.6157525 0.085412078 66 8 -0.005693329
0.92419988 -1.0139035 -0.3167311 4 1 -0.0056910249
3.2944226 -3.6154494 0.25634155 77 9 -0.0056887208
1.1609865 -1.2741196 -0.3350606 3 2 -0.0056864172
2.2727969 -2.4951451 0.29528365 27 10 -0.0056841131
1.4563097 -1.5993416 -0.34259152 2 3 -0.005681809
1.8867825 -2.0728199 0.34415907 6 11 -0.0056795049
1.9585643 -2.1524341 -0.35732093 1 4 -0.0056772009
3.3003995 -3.6283634 0.77685362 75 12 -0.0056748968
3.2792201 -3.6050794 -0.42636588 12 5 -0.0056725931
3.1883819 -3.5064437 0.92122585 24 13 -0.005670289
3.1924269 -3.5133555 1.0959616 36 14 -0.0056656809
3.2833395 -3.6146748 -0.085237555 62 7 -0.0056633768
3.1921148 -3.5154769 1.2723545 31 15 -0.0056610731
0.78722751 -0.86910492 -0.31420633 5 0 -0.0056403372
3.2763157 -3.618346 0.085202649 64 8 -0.0056380332
0.92980927 -1.0272368 -0.3198804 4 1 -0.0056357291
3.2697217 -3.6135979 0.2553995 72 9 -0.005633425
1.1354563 -1.2548721 -0.32895473 3 2 -0.0056311209
2.2801116 -2.5207946 0.29737538 33 10 -0.0056288168
1.4586673 -1.6132066 -0.34446874 2 3 -0.0056265127
1.8861912 -2.0867567 0.34537774 7 11 -0.0056242091
1.9643476 -2.1739862 -0.35975835 1 4 -0.005621905
3.2705004 -3.6208048 0.77278632 61 12 -0.0056196009
3.2639446 -3.6135468 -0.42601725 12 5 -0.0056172968
3.191911 -3.5350378 0.92580527 23 13 -0.0056149932
3.1958094 -3.5418398 1.1013604 38 14 -0.005610385
3.2573087 -3.6112652 -0.08488851 64 7 -0.0056080809
3.1979351 -3.5466843 1.2796015 29 15 -0.0056057768
0.7712698 -0.85748428 -0.30902994 5 0 -0.0055850409
3.2636657 -3.62976 0.085202649 64 8 -0.0055827368
0.91579634 -1.0188814 -0.31628117 3 1 -0.0055804327
3.2584236 -3.6264753 0.25550416 72 9 -0.0055781291
1.1441905 -1.2734314 -0.33277091 3 2 -0.005575825
2.2686357 -2.525774 0.29702678 36 10 -0.0055735209
1.4556668 -1.6212281 -0.34509447 2 3 -0.0055712168
1.8735917 -2.087419 0.34440279 7 11 -0.0055689132
1.9408386 -2.1630998 -0.35683349 1 4 -0.0055666091
3.2472899 -3.620435 0.7702834 61 12 -0.005564305
3.2419987 -3.6145356 -0.42479706 12 5 -0.0055620009
3.2031431 -3.5724688 0.93267435 24 13 -0.0055596968
3.2016323 -3.573293 1.107659 38 14 -0.0055550891
3.2366781 -3.6136754 -0.084679075 60 7 -0.005552785
3.1958447 -3.5693395 1.2837424 29 15 -0.0055504809
0.76441127 -0.85584897 -0.30747706 5 0 -0.005529745
3.2376571 -3.6262136 0.084853604 66 8 -0.0055274409
0.92261523 -1.0337031 -0.3198804 4 1 -0.0055251368
3.2344098 -3.6238501 0.25456211 70 9 -0.0055228332
1.1436596 -1.2818125 -0.33391577 3 2 -0.0055205291
2.2704144 -2.5455728 0.29842126 37 10 -0.005518225
1.4421113 -1.6174529 -0.34321725 2 3 -0.0055159209
1.8689356 -2.09691 0.34489027 7 11 -0.0055136168
1.9438404 -2.1817188 -0.35878339 1 4 -0.0055113127
3.2273817 -3.622334 0.76840615 63 12 -0.0055090091
3.2240617 -3.619879 -0.42409983 12 5 -0.005506705
3.2010975 -3.5953591 0.93572736 24 13 -0.0055044009
3.1982067 -3.5946381 1.1108083 34 14 -0.0054997932
3.2140431 -3.6124377 -0.084399842 61 7 -0.0054974891
3.1993973 -3.5972397 1.2899542 31 15 -0.005495185
0.77039206 -0.8686291 -0.31110048 5 0 -0.0054744491
3.216326 -3.6264579 0.084609263 68 8 -0.005472145
0.91918224 -1.0367568 -0.3198804 3 1 -0.005469841
3.2204156 -3.6336236 0.25445744 75 9 -0.0054675369
1.1352725 -1.2813883 -0.33277091 3 2 -0.0054652328
2.270762 -2.5639231 0.29964143 40 10 -0.0054629287
1.4367396 -1.6222262 -0.34321725 2 3 -0.005460625
1.8461809 -2.0852609 0.34196541 7 11 -0.005458321
1.9418573 -2.1940985 -0.35975835 1 4 -0.0054560169
3.2147181 -3.6335776 0.76840615 68 12 -0.0054537132
3.1876476 -3.6042473 -0.42096224 8 5 -0.0054514091
3.19436 -3.6118371 0.93725383 27 13 -0.0054491051
3.2094984 -3.6315076 1.1189066 36 14 -0.0054444969
3.204062 -3.6266313 -0.084469646 43 7 -0.0054421928
3.2047243 -3.6286576 1.297201 37 15 -0.0054398887
0.76495337 -0.86827999 -0.31006524 4 0 -0.0054191528
3.2049696 -3.6391635 0.084644176 56 8 -0.0054168487
0.91298229 -1.0370338 -0.3189806 4 1 -0.0054145451
3.1977901 -3.6322899 0.25362006 55 9 -0.005412241
1.1349082 -1.2895674 -0.33391577 3 2 -0.0054099369
2.2688272 -2.5789185 0.300513 40 10 -0.0054076328
1.4101958 -1.6034981 -0.33821136 2 3 -0.0054053292
1.8310266 -2.0827472 0.34050298 6 11 -0.0054030251
1.9525328 -2.2217391 -0.36317068 1 4 -0.005400721
3.2039552 -3.6457016 0.76871902 43 12 -0.0053984169
3.180938 -3.6207857 -0.42165947 8 5 -0.0053961128
3.2102337 -3.6554186 0.94564945 41 13 -0.0053938087
3.2096567 -3.6573355 1.1234056 48 14 -0.005389201
3.1906989 -3.6357336 -0.084434748 45 7 -0.0053868969
3.2066882 -3.6552398 1.3028952 39 15 -0.0053845928
0.76827765 -0.87821484 -0.31265342 5 0 -0.0053638569
3.2021003 -3.6603072 0.08488851 50 8 -0.0053615528
0.90697265 -1.0371217 -0.31808078 3 1 -0.0053592492
3.1903498 -3.6494448 0.25403875 52 9 -0.0053569451
1.1226485 -1.2846512 -0.33162606 3 2 -0.005354641
2.2716084 -2.6003268 0.30208179 41 10 -0.0053523369
1.4230649 -1.6289928 -0.34259152 2 3 -0.0053500328
1.8228042 -2.0873125 0.34025922 5 11 -0.0053477287
1.9268777 -2.2072651 -0.35975835 1 4 -0.0053454251
3.1938071 -3.6598401 0.76934481 42 12 -0.005343121
3.1800673 -3.6453793 -0.42322829 4 5 -0.0053408169
3.205838 -3.6749206 0.94793916 33 13 -0.0053385128
3.2026329 -3.6738346 1.1252052 38 14 -0.0053339051
3.1924396 -3.6634326 -0.084818691 40 7 -0.005331601
3.2104056 -3.6853473 1.3096244 35 15 -0.0053292969
0.76267368 -0.87797451 -0.31161815 4 0 -0.005317688
3.2070191 -3.693157 0.085377172 48 8 -0.0053153839
0.90061045 -1.0374957 -0.31718099 3 1 -0.0053130798
3.1965878 -3.6837411 0.25560883 47 9 -0.0053107762
1.110437 -1.2796654 -0.32933635 3 2 -0.0053084721
2.2625179 -2.6082404 0.30208179 41 10 -0.005306168
1.435203 -1.6550915 -0.34697169 2 3 -0.0053038639
1.8216428 -2.1014791 0.34147793 6 11 -0.0053015598
1.9187746 -2.214313 -0.35975835 1 4 -0.0052992562
3.1907184 -3.6834662 0.77184772 42 12 -0.0052969521
2.2998314 -2.6549978 -0.30731115 7 5 -0.005294648
3.2154799 -3.7133608 0.95480824 35 13 -0.0052923439
3.2095485 -3.7091265 1.1324036 42 14 -0.0052877362
3.1894569 -3.6872084 -0.085097939 48 7 -0.0052854321
3.2133031 -3.7160859 1.3163538 39 15 -0.005283128
0.75455719 -0.87477994 -0.3095476 4 0 -0.0052623921
3.2110839 -3.7240167 0.085830934 46 8 -0.005260088
0.90207273 -1.0465374 -0.3189806 3 1 -0.0052577839
3.2019615 -3.7160597 0.25707424 47 9 -0.0052554798
1.1187787 -1.2984066 -0.33315253 3 2 -0.0052531762
2.2546999 -2.6176317 0.30225611 42 10 -0.0052508721
1.4010603 -1.6271588 -0.34008855 2 3 -0.005248568
1.8078212 -2.1003027 0.34025922 5 11 -0.0052462639
1.9032652 -2.2119689 -0.35829589 1 4 -0.0052439598
3.1984518 -3.7185431 0.77685362 42 12 -0.0052416562
2.2983451 -2.6720724 -0.308357 7 5 -0.0052393521
3.2178581 -3.7424257 0.95938772 34 13 -0.005237048
3.2219813 -3.7498689 1.1414016 40 14 -0.0052324398
3.1895962 -3.7134881 -0.085446984 12 7 -0.0052301362
3.2128968 -3.7419372 1.3215301 39 15 -0.0052278321
0.75778246 -0.88474476 -0.31213579 4 0 -0.0052070958
3.2019665 -3.7397597 0.085935652 38 8 -0.0052047921
0.89334548 -1.0437579 -0.31718099 3 1 -0.005202488
3.2110443 -3.7530131 0.25885364 45 9 -0.005200184
1.1167923 -1.3052876 -0.33391577 3 2 -0.0051978799
2.253319 -2.6345708 0.30330199 42 10 -0.0051955758
1.408209 -1.6470537 -0.34321725 2 3 -0.0051932721
1.8004788 -2.1066003 0.34025922 4 11 -0.005190968
1.8955325 -2.2185991 -0.35829589 1 4 -0.005188664
3.2008469 -3.7477102 0.78060806 39 12 -0.0051863599
3.1857133 -3.7299912 -0.42915487 4 5 -0.0051840558
3.2251713 -3.7775249 0.96549362 30 13 -0.0051817521
3.2215207 -3.7759175 1.1459007 40 14 -0.005177144
2.252697 -2.6413007 -0.060594756 11 7 -0.0051748399
3.2223754 -3.7795908 1.3308476 39 15 -0.0051725358
0.75343794 -0.8859129 -0.31161815 4 0 -0.0051517999
2.2485452 -2.6448359 0.060594756 4 8 -0.0051494958
0.88464874 -1.04093 -0.31538138 3 1 -0.0051471922
3.2328386 -3.8052955 0.2616798 21 9 -0.0051448881
1.1147714 -1.3121701 -0.33467901 3 2 -0.005142584
2.251847 -2.6515322 0.30434784 20 10 -0.0051402799
1.3973373 -1.6459359 -0.34196579 2 3 -0.0051379758
1.8265105 -2.1522238 0.34659645 4 11 -0.0051356722
1.8954816 -2.2342846 -0.35975835 1 4 -0.0051333681
3.2145762 -3.7904983 0.78717828 48 12 -0.005131064
3.5579827 -4.1954293 -0.48127401 2 5 -0.0051287599
3.2246609 -3.8037353 0.96930981 33 13 -0.0051264558
3.2335136 -3.8168778 1.1548988 45 14 -0.0051218481
3.5616274 -4.2056756 -0.096197665 12 7 -0.005119544
3.2341268 -3.8203051 1.3412004 46 15 -0.0051172399
0.76031214 -0.90034521 -0.31575924 4 0 -0.005096504
2.245749 -2.6603091 0.060769279 45 8 -0.0050941999
0.89106405 -1.0559264 -0.3189806 3 1 -0.0050918958
2.2279191 -2.6410577 0.18108243 5 9 -0.0050895922
1.102589 -1.3070499 -0.3323893 3 2 -0.0050872881
3.5809317 -4.2464728 0.48598042 51 10 -0.005084984
1.3864909 -1.644762 -0.34071434 2 3 -0.0050826799
1.8292202 -2.1707304 0.34854636 4 11 -0.0050803758
1.8927865 -2.2469602 -0.36073327 1 4 -0.0050780722
3.2064152 -3.80774 0.78842986 31 12 -0.0050757681
3.5484495 -4.2139187 -0.48197123 2 5 -0.005073464
3.2303288 -3.8374975 0.975034 20 13 -0.0050711599
3.2264426 -3.8355982 1.1571481 27 14 -0.0050665522
3.5675168 -4.2425699 -0.096756138 45 7 -0.0050642481
3.2406609 -3.8552318 1.3494825 26 15 -0.005061944
0.74599344 -0.88967085 -0.31110048 4 0 -0.0050412081
