# .PCD v0.7 - Point Cloud Data file format
VERSION 0.7
FIELDS x y z intensity ring time
SIZE 4 4 4 4 2 4
TYPE F F F F U F
COUNT 1 1 1 1 1 1
WIDTH 917
HEIGHT 1
VIEWPOINT 0 0 0 1 0 0 0
POINTS 917
DATA ascii
2.7588818 -0.11707851 0.63751125 40 14 -0.005241483
1.4105051 -0.060104158 -0.024642797 88 7 -0.0052391789
2.7580926 -0.11800953 0.73970485 24 15 -0.0052368748
1.0943006 -0.048160914 -0.29350081 5 0 -0.0052161389
1.4263909 -0.063025869 0.024922037 88 8 -0.0052138348
1.2868518 -0.057085291 -0.29738528 3 1 -0.0052115307
1.4226468 -0.063109212 0.07463108 6 9 -0.0052092266
1.535706 -0.068393134 -0.29880691 2 2 -0.005206923
1.4251271 -0.063717701 0.12480702 87 10 -0.0052046189
1.9240551 -0.086361349 -0.30504724 2 3 -0.0052023148
1.4278177 -0.064337403 0.17549187 31 11 -0.0052000107
3.0479941 -0.13734248 -0.3746264 3 4 -0.0051977066
1.4030582 -0.063467108 0.22244984 2 12 -0.005195403
3.0949764 -0.14054205 -0.27105436 45 5 -0.0051930989
2.7594335 -0.12578775 0.53693652 25 13 -0.0051907948
2.746798 -0.12569217 0.63481188 21 14 -0.0051861866
1.4162908 -0.065056495 -0.024747513 85 7 -0.005183883
2.7461076 -0.12662116 0.73659903 24 15 -0.0051815789
1.105713 -0.05233752 -0.29660663 5 0 -0.0051608426
1.426174 -0.06775561 0.024922037 84 8 -0.0051585389
1.2983346 -0.06190924 -0.30008471 3 1 -0.0051562348
1.4244127 -0.068170272 0.074735753 6 9 -0.0051539307
1.5550679 -0.074695267 -0.30262309 2 2 -0.0051516267
1.4388387 -0.069112383 0.12602721 95 10 -0.0051493226
1.9474351 -0.093882702 -0.30880168 2 3 -0.0051470189
1.4157 -0.068496265 0.17402944 21 11 -0.0051447148
3.0593927 -0.1485588 -0.37608883 3 4 -0.0051424108
2.7602763 -0.13451713 0.43770367 20 12 -0.0051401067
3.096457 -0.15144201 -0.27122867 42 5 -0.0051378026
2.7334859 -0.134168 0.53197551 22 13 -0.0051354989
2.7580209 -0.13585477 0.63751125 21 14 -0.0051308908
1.4200494 -0.070197336 -0.024817321 83 7 -0.0051285867
2.7379305 -0.13582322 0.73452848 41 15 -0.0051262826
1.0977964 -0.055996157 -0.29453608 5 0 -0.0051055467
1.4339045 -0.073391207 0.025061656 88 8 -0.0051032426
1.2825296 -0.065867841 -0.29648548 3 1 -0.005100939
1.4281424 -0.07359612 0.074945092 5 9 -0.0050986349
1.5626262 -0.080799893 -0.30414957 2 2 -0.0050963308
1.4345963 -0.074179754 0.12567857 66 10 -0.0050940267
1.9391872 -0.10061037 -0.30755019 2 3 -0.0050917226
3.0469332 -0.15914977 -0.3746264 3 4 -0.0050871149
2.7380652 -0.14349593 0.4342621 41 12 -0.0050848108
3.1018498 -0.16310392 -0.27175158 40 5 -0.0050825067
2.7427785 -0.14470299 0.53388357 30 13 -0.0050802026
2.7555583 -0.14585951 0.63706136 41 14 -0.0050755949
1.4197826 -0.075401612 -0.024817321 83 7 -0.0050732908
2.7547767 -0.14678244 0.73918724 30 15 -0.0050709867
1.1052997 -0.060441334 -0.29660663 5 0 -0.0050502508
1.4356226 -0.078755766 0.025096562 91 8 -0.0050479467
1.2861711 -0.070782274 -0.29738528 3 1 -0.0050456426
1.4179057 -0.078032069 0.074421734 6 9 -0.005043339
1.5701758 -0.086686879 -0.30567604 2 2 -0.0050410349
2.7472796 -0.15215385 0.24072415 32 10 -0.0050387308
1.9388053 -0.10771717 -0.30755019 2 3 -0.0050364267
3.030503 -0.16890083 -0.37267649 4 4 -0.005031819
2.7395203 -0.15316296 0.43457499 26 12 -0.0050295149
3.1131976 -0.17459983 -0.27279747 45 5 -0.0050272108
2.7402966 -0.15416592 0.53350198 30 13 -0.0050249067
2.7414131 -0.15470871 0.63391209 21 14 -0.005020299
1.4195107 -0.080357112 -0.024817321 83 7 -0.0050179949
2.7542477 -0.15639751 0.73918724 24 15 -0.0050156908
1.101236 -0.063882552 -0.29557136 5 0 -0.0049949549
1.4393461 -0.083748333 0.02516637 81 8 -0.0049926508
1.2898202 -0.075274058 -0.2982851 3 1 -0.0049903467
1.4156452 -0.082617223 0.074317068 4 9 -0.0049880426
1.5659597 -0.091663837 -0.30491278 2 2 -0.0049857385
2.7606828 -0.16208073 0.24194433 30 10 -0.0049834349
1.9423815 -0.11437814 -0.30817595 2 3 -0.0049811308
2.7485337 -0.1623302 0.33806559 23 11 -0.0049788267
3.0576694 -0.18058795 -0.37608883 3 4 -0.0049765226
2.7330813 -0.16189624 0.43363637 24 12 -0.004974219
3.0966902 -0.18397729 -0.27140298 45 5 -0.0049719149
2.7574081 -0.1643032 0.53693652 24 13 -0.0049696108
2.7389398 -0.16368248 0.63346219 18 14 -0.0049650026
1.4152445 -0.084824666 -0.024747513 83 7 -0.0049626986
2.7363582 -0.16448678 0.73452848 37 15 -0.0049603949
1.0971617 -0.067297488 -0.29453608 5 0 -0.0049396586
1.4370645 -0.088398144 0.025131466 84 8 -0.0049373549
1.3012338 -0.080270752 -0.3009845 3 1 -0.0049350508
2.7250438 -0.16858044 0.14308652 20 9 -0.0049327468
1.5617282 -0.096613809 -0.30414957 2 2 -0.0049304427
2.7442217 -0.17024766 0.24054985 34 10 -0.0049281386
1.9380482 -0.12057336 -0.30755019 2 3 -0.0049258349
2.7499614 -0.17156738 0.33830932 28 11 -0.0049235309
3.0649452 -0.19175592 -0.37706378 4 4 -0.0049212268
2.7246137 -0.17094074 0.43238491 36 12 -0.0049189227
3.0960631 -0.19424526 -0.27140298 45 5 -0.0049166186
2.7392139 -0.17233671 0.53350198 32 13 -0.004914315
2.7422414 -0.17348823 0.63436198 33 14 -0.0049097068
1.4189309 -0.090017483 -0.024817321 76 7 -0.0049074027
2.749263 -0.174896 0.73815197 33 15 -0.0049050986
1.09692 -0.071126886 -0.29453608 5 0 -0.0048843627
1.4247744 -0.09263546 0.024922037 20 8 -0.0048820586
1.289278 -0.084051773 -0.2982851 3 1 -0.004879755
1.5809722 -0.10334527 -0.30796573 3 2 -0.0048751468
2.747587 -0.18008637 0.24089848 42 10 -0.0048728427
1.9455001 -0.12785582 -0.30880168 2 3 -0.0048705386
2.7394416 -0.18051288 0.33709061 37 11 -0.004868235
3.0721805 -0.2029769 -0.37803873 3 4 -0.0048659309
2.7279425 -0.18071152 0.43301064 32 12 -0.0048636268
3.1033185 -0.20557815 -0.27210024 45 5 -0.0048613227
2.7346776 -0.18163709 0.53273875 34 13 -0.0048590186
2.7571745 -0.18409802 0.63796121 28 14 -0.0048544109
1.426589 -0.095504224 -0.024956942 76 7 -0.0048521068
2.7486358 -0.18449165 0.73815197 24 15 -0.0048498027
1.1043744 -0.075482339 -0.29660663 5 0 -0.0048290668
2.7371635 -0.18756099 0.047889404 55 8 -0.0048267627
1.2812001 -0.088017434 -0.29648548 3 1 -0.0048244586
2.7297783 -0.1880123 0.14340053 39 9 -0.004822155
1.5727673 -0.10832367 -0.30643925 3 2 -0.0048198509
2.748929 -0.18981336 0.24107277 37 10 -0.0048175468
1.9292768 -0.13355476 -0.3062987 2 3 -0.0048152427
2.7269132 -0.1892496 0.33562821 23 11 -0.0048129386
3.0476892 -0.21204618 -0.37511387 3 4 -0.004810635
2.733207 -0.19064508 0.43394926 23 12 -0.0048083309
3.106519 -0.21722895 -0.27244884 41 5 -0.0048060268
2.7359855 -0.19131874 0.53312039 29 13 -0.0048037227
2.7429073 -0.19276492 0.63481188 32 14 -0.0047991145
1.4422051 -0.10160766 -0.02523618 31 7 -0.0047968109
2.7402668 -0.19354066 0.73608136 35 15 -0.0047945068
1.096383 -0.078974396 -0.29453608 5 0 -0.0047737709
2.7305086 -0.19668335 0.04778469 28 8 -0.0047714668
1.2769976 -0.092208423 -0.29558566 3 1 -0.0047691627
2.7350812 -0.1979724 0.14371455 27 9 -0.0047668586
1.5684435 -0.11380327 -0.30567604 3 2 -0.004764555
2.746228 -0.19974288 0.24089848 23 10 -0.0047622509
1.9524161 -0.14234871 -0.31005314 2 3 -0.0047599468
2.736135 -0.19948888 0.33684689 23 11 -0.0047576427
3.0627692 -0.22384083 -0.37706378 3 4 -0.0047553387
2.7187343 -0.1991743 0.43175918 36 12 -0.0047530346
3.1136899 -0.22865508 -0.27314609 41 5 -0.0047507309
2.7411397 -0.20177773 0.53426522 29 13 -0.0047484268
2.7324653 -0.20209819 0.63256234 38 14 -0.0047438187
2.7400973 -0.20266268 -0.047959212 47 7 -0.004741515
2.7472811 -0.20367609 0.73815197 35 15 -0.0047392109
1.0922478 -0.082509957 -0.29350081 6 0 -0.004718475
2.7317634 -0.20684083 0.047819596 30 8 -0.004716171
1.2844237 -0.097478107 -0.29738528 3 1 -0.0047138669
2.7323458 -0.20784415 0.14360988 36 9 -0.0047115628
1.5562911 -0.11838399 -0.3033863 3 2 -0.0047092587
2.7514739 -0.20978221 0.24142142 34 10 -0.0047069546
1.9282717 -0.14735684 -0.3062987 1 3 -0.004704651
2.7452819 -0.21027401 0.33806559 37 11 -0.0047023469
3.0579696 -0.23476107 -0.3765763 3 4 -0.0047000428
2.7219248 -0.20944071 0.43238491 33 12 -0.0046977387
3.1108863 -0.23936968 -0.27297178 42 5 -0.0046954346
2.7462909 -0.21179774 0.53541011 34 13 -0.004693131
2.7414577 -0.21238764 0.63481188 31 14 -0.0046885228
2.7213926 -0.21131098 -0.04764507 24 7 -0.0046862187
2.738812 -0.21314445 0.73608136 26 15 -0.0046839146
1.0996566 -0.086931087 -0.29557136 5 0 -0.0046631787
2.7350116 -0.21669105 0.047889404 46 8 -0.0046608746
1.3035018 -0.10350351 -0.30188429 3 1 -0.004658571
2.7316036 -0.21738057 0.14360988 37 9 -0.0046562669
1.5578256 -0.1239715 -0.30376795 3 2 -0.0046539628
2.7407944 -0.21859337 0.24054985 32 10 -0.0046516587
1.754465 -0.14023635 -0.27876624 1 3 -0.0046493546
2.738595 -0.21938001 0.33733436 22 11 -0.004647051
3.0294292 -0.24320993 -0.37316394 3 4 -0.0046447469
2.7251153 -0.21925758 0.43301064 22 12 -0.0046424428
3.104074 -0.24974786 -0.27244884 41 5 -0.0046401387
2.743578 -0.22122501 0.53502846 27 13 -0.0046378346
2.7445846 -0.22227046 0.63571167 21 14 -0.0046332269
2.7345905 -0.22194149 -0.047889404 28 7 -0.0046309228
2.7264981 -0.22176372 0.73297554 28 15 -0.0046286187
1.103197 -0.091086999 -0.29660663 5 0 -0.0046078828
2.7322459 -0.22607182 0.047854498 25 8 -0.0046055787
1.2914802 -0.10708676 -0.29918489 3 1 -0.0046032746
2.7408199 -0.2272629 0.14413324 29 9 -0.004600971
1.5573833 -0.12940857 -0.30376795 3 2 -0.0045986669
2.7380292 -0.22799386 0.24037553 22 10 -0.0045963628
1.9429442 -0.16212913 -0.30880168 1 3 -0.0045940587
2.7397907 -0.22910358 0.33757812 25 11 -0.0045917546
3.0147147 -0.25262281 -0.37145779 2 4 -0.0045894505
2.7342157 -0.22911794 0.43457499 29 12 -0.0045871469
3.1071541 -0.26091498 -0.27279747 45 5 -0.0045848428
2.7369201 -0.23030667 0.53388357 29 13 -0.0045825387
2.7515593 -0.2325058 0.63751125 32 14 -0.004577931
2.731847 -0.23084015 -0.047854498 50 7 -0.0045756269
2.7334476 -0.23145588 0.73504615 35 15 -0.0045733228
1.1028724 -0.094937325 -0.29660663 5 0 -0.0045525869
2.7314811 -0.23513103 0.047854498 61 8 -0.0045502828
1.2833519 -0.11069899 -0.29738528 3 1 -0.0045479788
2.7280707 -0.23579684 0.1435052 50 9 -0.0045456747
1.5588781 -0.13501348 -0.30414957 2 2 -0.0045433706
2.7689755 -0.24030618 0.24316452 60 10 -0.0045410669
1.9620757 -0.17027919 -0.31193036 1 3 -0.0045387628
2.7350605 -0.23784381 0.33709061 44 11 -0.0045364588
3.1127405 -0.27123469 -0.38364473 1 4 -0.0045341547
2.7333994 -0.23866071 0.43457499 40 12 -0.004531851
3.1121788 -0.27228034 -0.27332041 42 5 -0.0045295469
2.7420087 -0.23989466 0.53502846 40 13 -0.0045272429
2.750773 -0.24162902 0.63751125 43 14 -0.0045226347
2.7449684 -0.24160193 -0.048098832 45 7 -0.0045203306
2.7460935 -0.24218398 0.73866957 24 15 -0.004518027
1.1044756 -0.098766118 -0.29712427 5 0 -0.0044972906
2.7306435 -0.24466425 0.047854498 29 8 -0.004494987
1.2907213 -0.11587504 -0.29918489 3 1 -0.0044926829
2.7391665 -0.24639174 0.14413324 31 9 -0.0044903788
1.5623324 -0.14053391 -0.30491278 2 2 -0.0044880747
2.7542729 -0.24823521 0.24194433 36 10 -0.0044857706
1.9890125 -0.17961432 -0.31631052 1 3 -0.004483467
2.7322369 -0.24721067 0.33684689 40 11 -0.0044811629
3.0722349 -0.278514 -0.37876993 1 4 -0.0044788588
2.7286148 -0.24784324 0.43394926 49 12 -0.0044765547
3.1211302 -0.28404507 -0.27419198 40 5 -0.0044742506
2.745065 -0.24982046 0.5357917 40 13 -0.004471947
2.747972 -0.25105223 0.63706136 58 14 -0.0044673388
2.7182205 -0.24881257 -0.04764507 20 7 -0.0044650347
2.751003 -0.25229746 0.74022251 66 15 -0.0044627306
1.1021826 -0.10263445 -0.29660663 5 0 -0.0044419947
2.7476926 -0.25586316 0.048168644 40 8 -0.0044396906
1.2980703 -0.12110389 -0.3009845 3 1 -0.004437387
2.7343125 -0.25557998 0.14392389 34 9 -0.0044350829
1.5618068 -0.1462592 -0.30491278 2 2 -0.0044327788
2.749377 -0.25795618 0.24159572 34 10 -0.0044304747
1.9372065 -0.18209659 -0.30817595 1 3 -0.0044281706
2.7392628 -0.25748953 0.33782184 21 11 -0.0044258665
3.083102 -0.29035318 -0.38023239 1 4 -0.0044235629
2.7198663 -0.25662413 0.43269777 19 12 -0.0044212588
3.1181362 -0.29475063 -0.27401763 42 5 -0.0044189547
2.7617216 -0.26154587 0.53922629 19 13 -0.0044166506
2.7353935 -0.26001593 0.63436198 23 14 -0.0044120429
2.7352521 -0.26000249 -0.047959212 25 7 -0.0044097388
2.7501056 -0.26189873 0.74022251 35 15 -0.0044074347
1.1056637 -0.10685284 -0.29764193 5 0 -0.0043866988
2.7308133 -0.26439059 0.047889404 23 8 -0.0043843947
1.2976177 -0.12586075 -0.3009845 3 1 -0.0043820906
2.7433436 -0.26608706 0.14444725 23 9 -0.0043797866
1.5691029 -0.15246953 -0.30643925 2 2 -0.0043774829
2.7504432 -0.26774481 0.24177003 20 10 -0.0043751788
1.9168985 -0.18694025 -0.30504724 1 3 -0.0043728747
2.7442276 -0.26810676 0.33855307 24 11 -0.0043705706
3.0820699 -0.30111343 -0.38023239 2 4 -0.004368267
2.7287841 -0.26707876 0.4342621 26 12 -0.0043659629
3.1091568 -0.3048555 -0.27332041 42 5 -0.0043636588
2.75493 -0.27060869 0.53808141 19 13 -0.0043613547
2.7461524 -0.27023044 0.63706136 42 14 -0.0043567466
2.738308 -0.26994103 -0.048029024 34 7 -0.0043544429
2.7414846 -0.27073735 0.73815197 35 15 -0.0043521388
1.1014585 -0.11013434 -0.29660663 5 0 -0.0043314029
2.7398703 -0.27444136 0.04806393 25 8 -0.0043290989
1.2894371 -0.12938486 -0.29918489 3 1 -0.0043267948
2.7444329 -0.27538222 0.14455192 27 9 -0.0043244907
1.5568683 -0.1564939 -0.30414957 2 2 -0.004322187
2.7614341 -0.27806181 0.24281588 24 10 -0.004319883
1.939853 -0.19567493 -0.30880168 1 3 -0.0043175789
2.7452986 -0.27740508 0.33879682 32 11 -0.0043152748
3.0771043 -0.31093314 -0.37974492 2 4 -0.0043129707
2.7357447 -0.27692205 0.43551362 33 12 -0.0043106666
3.1140754 -0.31576714 -0.27384335 41 5 -0.004308363
2.7383919 -0.27815568 0.53502846 32 13 -0.0043060589
2.754935 -0.2803219 0.6393109 43 14 -0.0043014507
2.7354083 -0.27881736 -0.047994118 30 7 -0.0042991466
2.7405717 -0.27982697 0.73815197 24 15 -0.004296843
1.1049306 -0.11418347 -0.29764193 5 0 -0.0042761071
2.7488904 -0.28455508 0.048238453 33 8 -0.004273803
1.2967544 -0.13446403 -0.3009845 3 1 -0.0042714989
2.7474282 -0.28537306 0.14476126 36 9 -0.0042691948
1.5250968 -0.15841052 -0.29804367 5 2 -0.0042668907
2.7723873 -0.28845465 0.24386176 37 10 -0.0042645866
1.8606039 -0.19391587 -0.29628691 1 3 -0.0042622825
2.742389 -0.28630114 0.33855307 32 11 -0.0042599789
3.0325651 -0.31713012 -0.37438264 1 4 -0.0042576748
2.7327967 -0.28626409 0.43520072 20 12 -0.0042553707
3.1268249 -0.32809079 -0.27506351 42 5 -0.0042530666
2.7608848 -0.2896935 0.53960788 22 13 -0.004250763
2.7500634 -0.28952858 0.6384111 22 14 -0.0042461548
2.7324297 -0.2881543 -0.047959212 19 7 -0.0042438507
2.7530262 -0.29081219 0.74177545 23 15 -0.0042415466
1.1121882 -0.11905496 -0.29971248 5 0 -0.0042208107
2.751857 -0.29457444 0.048308261 32 8 -0.0042185066
1.2885265 -0.13815869 -0.29918489 3 1 -0.0042162025
2.7364862 -0.29389527 0.14423791 24 9 -0.0042138989
1.504986 -0.16189936 -0.29422748 15 2 -0.0042115948
2.7732923 -0.29882747 0.24403608 32 10 -0.0042092907
1.7302586 -0.18674412 -0.27563757 1 3 -0.0042069866
2.7532148 -0.29715019 0.3400155 23 11 -0.004204683
1.5236142 -0.16471034 -0.18816628 1 4 -0.0042023789
2.7455282 -0.29729018 0.43739083 22 12 -0.0042000748
3.1276414 -0.33921829 -0.27523783 45 5 -0.0041977707
2.7637081 -0.30023476 0.54037106 19 13 -0.0041954666
2.7489839 -0.29960611 0.6384111 12 14 -0.0041908589
2.7473104 -0.29942375 -0.048238453 23 7 -0.0041885548
2.7577558 -0.30104923 0.74332833 28 15 -0.0041862507
1.1002449 -0.12166253 -0.29660663 5 0 -0.0041655148
2.758709 -0.30553904 0.048447877 20 8 -0.0041632107
1.2918853 -0.14331019 -0.30008471 3 1 -0.0041609067
2.7513244 -0.30520728 0.14507528 23 9 -0.004158603
1.5024604 -0.16693495 -0.29384586 25 2 -0.0041562989
2.7583709 -0.30696368 0.24281588 19 10 -0.0041539948
1.5529065 -0.17308867 -0.24747935 1 3 -0.0041516908
2.7639441 -0.3085607 0.34147793 19 11 -0.0041493867
1.5190548 -0.16985238 -0.1876788 1 4 -0.0041470826
2.7444739 -0.30687201 0.43739083 33 12 -0.0041447789
3.1185179 -0.34924668 -0.27454057 40 5 -0.0041424748
2.7704473 -0.31075543 0.54189759 20 13 -0.0041401708
2.7517943 -0.30963591 0.6393109 20 14 -0.004135563
2.7522101 -0.30968267 -0.048343167 30 7 -0.0041332589
2.7490094 -0.30980837 0.74125779 26 15 -0.0041309549
1.0940554 -0.12484529 -0.29505375 5 0 -0.004110219
2.7556939 -0.31445885 0.048412975 21 8 -0.0041079149
1.3030198 -0.14892112 -0.30278412 3 1 -0.0041056108
2.7502422 -0.31480932 0.14507528 24 9 -0.0041033067
1.511621 -0.17329656 -0.29575396 13 2 -0.0041010026
2.7731178 -0.31840852 0.24421038 24 10 -0.0040986985
1.5169994 -0.17418139 -0.24184772 2 3 -0.0040963949
2.768822 -0.31840491 0.34220913 29 11 -0.0040940908
1.5165111 -0.17466167 -0.18743508 1 4 -0.0040917867
2.7394612 -0.31599742 0.43676507 32 12 -0.0040894831
3.11728 -0.36013022 -0.27454057 41 5 -0.004087179
2.7518489 -0.31791306 0.538463 28 13 -0.0040848749
2.7759175 -0.32167557 0.6451596 30 14 -0.0040802667
2.7511125 -0.31928778 -0.048343167 30 7 -0.0040779626
2.7575059 -0.32051754 0.74384594 19 15 -0.0040756585
1.0936353 -0.12847263 -0.29505375 5 0 -0.0040549226
2.7585516 -0.32454345 0.048482787 26 8 -0.0040526185
1.2870091 -0.1516443 -0.29918489 3 1 -0.0040503149
2.7591007 -0.32509628 0.14559864 32 9 -0.0040480108
2.7819397 -0.32877192 0.24508193 32 10 -0.0040434026
1.6615467 -0.19665702 -0.26500002 1 3 -0.004041099
2.7598085 -0.32713327 0.34123421 28 11 -0.0040387949
1.5198346 -0.18042225 -0.18792254 1 4 -0.0040364908
2.7462444 -0.32601154 0.43801656 18 12 -0.0040341867
3.1358531 -0.3728177 -0.27628368 45 5 -0.0040318826
2.7624192 -0.32890961 0.54075271 20 13 -0.0040295785
2.7844527 -0.33251879 0.64740908 26 14 -0.0040249708
2.7480528 -0.32817191 -0.048308261 19 7 -0.0040226667
2.7679367 -0.33103645 0.74695182 22 15 -0.0040203626
1.1066052 -0.13391393 -0.29867718 5 0 -0.0039996267
2.767386 -0.33489048 0.048657309 32 8 -0.0039973226
1.2981067 -0.15731806 -0.30188429 3 1 -0.003995019
2.7658801 -0.33568794 0.14601734 30 9 -0.0039927149
1.5805672 -0.19210941 -0.3094922 1 2 -0.0039904108
2.7847309 -0.3389622 0.24543057 30 10 -0.0039881067
1.9354119 -0.23558165 -0.30880168 1 3 -0.0039858026
2.7646203 -0.33700398 0.34196541 19 11 -0.0039834986
3.0522492 -0.37260625 -0.37755126 1 4 -0.0039811949
2.7666581 -0.33823252 0.44145811 21 12 -0.0039788908
3.1365104 -0.38400376 -0.27645802 42 5 -0.0039765867
2.7749546 -0.33973837 0.54342401 20 13 -0.0039742826
2.775598 -0.34080058 0.6456095 25 14 -0.0039696749
2.7667379 -0.3402029 -0.048657309 21 7 -0.0039673708
2.7744339 -0.34164074 0.74902231 22 15 -0.0039650667
1.1080481 -0.13801467 -0.29919481 5 0 -0.00395894
2.7839992 -0.34725887 0.048971456 27 8 -0.0039566359
1.2878528 -0.16086709 -0.29963478 3 1 -0.0039543319
2.7606673 -0.34532726 0.14580798 21 9 -0.0039520282
1.5448217 -0.19323917 -0.30262309 1 2 -0.0039497241
2.7736461 -0.34744245 0.24455902 22 10 -0.00394742
1.9658957 -0.2466076 -0.31380758 1 3 -0.003945116
2.771245 -0.34812424 0.34294036 17 11 -0.0039428119
3.0587411 -0.38478193 -0.37852621 1 4 -0.0039405082
2.7536409 -0.34688923 0.43958092 18 12 -0.0039382041
3.1391044 -0.39544788 -0.27680662 42 5 -0.0039359001
2.7834296 -0.35113543 0.54533213 18 13 -0.003933596
2.7704637 -0.35048223 0.64470971 33 14 -0.0039289882
2.7734082 -0.35134649 -0.048796929 22 7 -0.0039266841
2.7789125 -0.35253665 0.75057524 26 15 -0.0039243801
1.0941461 -0.14016335 -0.29557136 5 0 -0.0039036439
2.7827699 -0.35697472 0.048971456 21 8 -0.0039013401
1.3008136 -0.16709961 -0.30278412 3 1 -0.003899036
2.7693503 -0.35623586 0.14633135 18 9 -0.0038967321
1.583082 -0.20364004 -0.31025544 1 2 -0.003894428
2.796129 -0.36017665 0.24665076 20 10 -0.0038921239
1.9415133 -0.25043586 -0.31005314 1 3 -0.0038898201
2.7857628 -0.35982993 0.34489027 17 11 -0.003887516
3.0770664 -0.39800292 -0.38096359 1 4 -0.0038852121
2.7622085 -0.35776779 0.44114524 26 12 -0.003882908
3.1357291 -0.40614709 -0.27663234 45 5 -0.0038806039
2.788028 -0.36160684 0.54647696 16 13 -0.0038783001
2.7634261 -0.35939682 0.64336002 18 14 -0.0038736921
2.7681987 -0.36050886 -0.048727117 23 7 -0.003871388
2.773834 -0.36173511 0.74953997 26 15 -0.0038690839
1.1013117 -0.14499043 -0.29764193 5 0 -0.003848348
2.7834892 -0.3669475 0.049006358 18 8 -0.003846044
1.2886305 -0.17010905 -0.30008471 3 1 -0.0038437401
2.7760098 -0.36694744 0.14675003 19 9 -0.003841436
1.5784688 -0.20865023 -0.3094922 1 2 -0.0038391321
2.7968299 -0.37019622 0.24682505 20 10 -0.0038368281
1.9288777 -0.25565419 -0.30817595 1 3 -0.003834524
2.7884254 -0.37007424 0.34537774 19 11 -0.0038322201
3.0953362 -0.41135654 -0.38340098 2 4 -0.003829916
2.7707331 -0.3687104 0.44270959 29 12 -0.0038276121
3.1283674 -0.41630194 -0.2761094 42 5 -0.0038253081
2.7906406 -0.37185523 0.5472402 19 13 -0.003823004
2.800786 -0.37420216 0.65235806 25 14 -0.003818396
2.7827797 -0.37229076 -0.049006358 35 7 -0.0038160919
2.7763836 -0.37192836 0.75057524 22 15 -0.0038137881
1.0950555 -0.14805731 -0.29608899 5 0 -0.0037930519
2.7861547 -0.37719807 0.049076166 36 8 -0.0037907481
1.3034774 -0.17670038 -0.30368391 3 1 -0.003788444
2.7885656 -0.37851575 0.14748274 30 9 -0.0037861401
1.5777309 -0.21415885 -0.3094922 1 2 -0.003783836
2.8053918 -0.38129833 0.24769662 36 10 -0.0037815319
1.9318881 -0.26291841 -0.30880168 1 3 -0.0037792281
2.7890835 -0.3800734 0.3456215 31 11 -0.003776924
3.0388091 -0.41464424 -0.3765763 1 4 -0.0037746201
2.7811725 -0.37998423 0.44458681 35 12 -0.003772316
3.1347911 -0.42829821 -0.27680662 42 5 -0.0037700119
2.7893257 -0.38159412 0.5472402 32 13 -0.0037677081
2.8129773 -0.38583013 0.65550733 43 14 -0.0037631001
2.7834444 -0.38227433 -0.049041264 20 7 -0.003760796
2.7846377 -0.38293344 0.75316346 24 15 -0.0037584919
1.1002725 -0.15267543 -0.29764193 5 0 -0.0037377561
2.7986858 -0.38884765 0.049320504 25 8 -0.003735452
1.2835511 -0.17856412 -0.29918489 3 1 -0.0037331481
2.7931621 -0.38907403 0.14779675 18 9 -0.003730844
1.5886407 -0.22128999 -0.31178191 1 2 -0.0037285401
2.8158834 -0.39274001 0.24874248 19 10 -0.0037262361
1.9935632 -0.27840316 -0.31881347 1 3 -0.003723932
2.7975695 -0.39118129 0.3468402 15 11 -0.0037216281
3.1435032 -0.4401122 -0.3897382 1 4 -0.003719324
2.7935228 -0.39160973 0.4467769 27 12 -0.0037170202
3.1391964 -0.44006792 -0.27732956 41 5 -0.0037147161
2.7996421 -0.39296573 0.54952991 18 13 -0.003712412
2.801965 -0.3942892 0.65325785 26 14 -0.003707804
2.8177354 -0.39700991 -0.049669549 20 7 -0.0037055002
2.8081517 -0.39615947 0.75989276 44 15 -0.0037031961
1.1016455 -0.15678734 -0.29815957 5 0 -0.0036824602
2.8151286 -0.40115336 0.049634643 23 8 -0.0036801561
1.2983537 -0.18524548 -0.30278412 3 1 -0.003677852
2.8036501 -0.40051633 0.14842479 19 9 -0.0036755481
1.5878586 -0.22683403 -0.31178191 1 2 -0.003673244
2.8322461 -0.40510583 0.25031129 20 10 -0.0036709399
1.9495599 -0.27919945 -0.31193036 1 3 -0.0036686361
2.809942 -0.40291658 0.34854636 14 11 -0.003666332
3.075139 -0.44149086 -0.38145107 2 4 -0.0036640281
2.7745411 -0.39882886 0.44396105 17 12 -0.003661724
3.1514459 -0.45300737 -0.27854973 46 5 -0.0036594199
2.8099127 -0.404414 0.55181968 14 13 -0.0036571161
2.7967141 -0.40351093 0.65235806 20 14 -0.0036525081
2.8143532 -0.40655732 -0.049634643 21 7 -0.003650204
2.802928 -0.4054063 0.75885749 23 15 -0.0036479
1.0953566 -0.15979522 -0.29660663 5 0 -0.0036271641
2.8236046 -0.41242266 0.049809169 19 8 -0.00362486
1.2899863 -0.18864851 -0.3009845 3 1 -0.0036225561
2.8180444 -0.41261524 0.14926216 19 9 -0.003620252
1.5637466 -0.22896221 -0.30720252 1 2 -0.0036179479
2.8367288 -0.41585672 0.25083423 21 10 -0.0036156441
2.0462952 -0.30034611 -0.32757381 1 3 -0.00361334
2.8261945 -0.41532019 0.35073999 15 11 -0.0036110361
3.0794713 -0.4530893 -0.3821823 3 4 -0.003608732
2.8024464 -0.41282973 0.44865409 17 12 -0.0036064279
3.1419611 -0.46284381 -0.27785251 46 5 -0.0036041241
2.8220794 -0.41622514 0.55449098 12 13 -0.00360182
2.8145664 -0.41612095 0.65685707 11 14 -0.003597212
2.8208296 -0.41755006 -0.049774267 22 7 -0.0035949079
2.8110509 -0.41660389 0.76144564 19 15 -0.0035926041
1.1024346 -0.16475995 -0.29867718 5 0 -0.0035718679
2.8241258 -0.42257231 0.049844075 13 8 -0.0035695641
1.2970288 -0.19430511 -0.30278412 3 1 -0.00356726
2.8284378 -0.424227 0.14989018 16 9 -0.0035649561
1.57847 -0.23674893 -0.31025544 1 2 -0.003562652
2.849052 -0.4278273 0.25205442 20 10 -0.0035603479
1.9475632 -0.29280302 -0.31193036 1 3 -0.0035580441
2.8384683 -0.42725122 0.35244617 16 11 -0.00355574
3.0739453 -0.46324429 -0.38169482 3 4 -0.0035534361
2.8224742 -0.42585137 0.45209566 15 12 -0.003551132
3.1442664 -0.47440296 -0.27820113 46 5 -0.003548828
2.8361394 -0.42841944 0.55754393 14 13 -0.0035465241
2.8419981 -0.43031919 0.66360557 18 14 -0.0035419161
2.8411031 -0.43069091 -0.050158214 17 7 -0.0035396121
2.8210394 -0.4281531 0.76455152 23 15 -0.003537308
1.0942143 -0.1674383 -0.29660663 5 0 -0.0035165721
2.850306 -0.43666723 0.05033274 16 8 -0.003514268
1.2886378 -0.19764966 -0.3009845 3 1 -0.0035119641
2.8664989 -0.43966004 0.15198363 14 9 -0.00350966
1.589277 -0.24404526 -0.31254515 1 2 -0.0035073562
2.8593569 -0.43958625 0.25310028 13 10 -0.0035050521
2.8546169 -0.43987763 0.3546398 14 11 -0.0035004441
3.0645442 -0.47222602 -0.38071984 3 4 -0.00349814
2.8327603 -0.43701577 0.45397288 17 12 -0.0034958362
3.1386533 -0.48476738 -0.27785251 42 5 -0.0034935321
2.8637295 -0.44281697 0.56326818 18 13 -0.003491228
2.8617394 -0.44302067 0.66855454 17 14 -0.00348662
2.8633726 -0.44378522 -0.050577074 18 7 -0.0034843162
2.8367848 -0.44017154 0.76921022 13 15 -0.0034820121
1.1070136 -0.17315575 -0.30023012 5 0 -0.0034612762
2.8784766 -0.45075741 0.050856311 15 8 -0.0034589721
1.2764239 -0.20011088 -0.2982851 3 1 -0.003456668
2.8709447 -0.4500913 0.15229765 11 9 -0.0034543639
1.5787615 -0.24779209 -0.31063706 1 2 -0.00345206
2.879534 -0.45246777 0.2550177 16 10 -0.003449756
1.961136 -0.30850855 -0.31443331 1 3 -0.0034474521
2.8629475 -0.45088559 0.3558585 14 11 -0.003445148
3.0825708 -0.48547408 -0.38315722 3 4 -0.0034428439
2.8625162 -0.45132971 0.4589788 13 12 -0.0034405401
3.1508045 -0.49734741 -0.27907267 45 5 -0.003438236
2.8622453 -0.45231098 0.56326818 10 13 -0.0034359321
2.866029 -0.45342168 0.66990423 13 14 -0.0034313239
2.9073122 -0.46047303 -0.051379886 17 7 -0.0034290201
2.8582058 -0.45320672 0.77542186 15 15 -0.003426716
1.1064333 -0.17682579 -0.30023012 5 0 -0.0034059801
2.926331 -0.46819845 0.051728934 16 8 -0.003403676
1.2872986 -0.20619179 -0.3009845 3 1 -0.0034013721
2.896965 -0.46453723 0.15376306 15 9 -0.003399068
2.9134274 -0.46769857 0.25815532 16 10 -0.0033944601
1.9523008 -0.31375647 -0.31318185 2 3 -0.003392156
2.8908346 -0.46510684 0.35951459 12 11 -0.0033898521
3.0651789 -0.49370596 -0.38120735 3 4 -0.003387548
2.8784747 -0.46414912 0.46179458 16 12 -0.0033852439
3.1569171 -0.50961286 -0.27976993 45 5 -0.0033829401
2.8975549 -0.46774471 0.57051897 11 13 -0.003380636
2.8798187 -0.46591306 0.67350346 15 14 -0.003376028
2.9806976 -0.4827677 -0.052706268 34 7 -0.0033737239
2.8813968 -0.46720055 0.78215116 13 15 -0.0033714201
1.0886191 -0.17807312 -0.29557136 5 0 -0.003350684
3.0371661 -0.49681073 0.053718507 73 8 -0.0033483801
1.3019561 -0.21320347 -0.30458373 3 1 -0.003346076
2.9781058 -0.48821723 0.15815927 48 9 -0.0033437721
1.6583613 -0.27216151 -0.32666501 1 2 -0.0033414681
3.0040972 -0.49355507 0.26634794 45 10 -0.003339164
1.9589344 -0.32219222 -0.31443331 2 3 -0.0033368601
2.9734211 -0.48904809 0.36999539 21 11 -0.003334556
3.083024 -0.50762749 -0.38364473 3 4 -0.0033322521
2.9314113 -0.48318961 0.47055492 15 12 -0.0033299481
3.1511874 -0.51998067 -0.2794213 45 5 -0.003327644
2.9733012 -0.49116057 0.58578366 18 13 -0.0033253401
2.9453816 -0.48760477 0.68925005 19 14 -0.0033207322
3.0519896 -0.50525361 -0.053997744 52 7 -0.0033184281
2.9083364 -0.48199344 0.78991574 15 15 -0.003316124
1.097518 -0.18346462 -0.29815957 5 0 -0.0032953881
3.0668812 -0.51321989 0.054276984 58 8 -0.003293084
1.2781023 -0.2141103 -0.29918489 3 1 -0.0032907801
3.0788136 -0.51576912 0.16360222 61 9 -0.003288476
1.5489731 -0.25976503 -0.30529439 2 2 -0.0032861722
3.0711269 -0.51558363 0.27244884 50 10 -0.0032838681
1.9577978 -0.32902822 -0.31443331 2 3 -0.003281564
3.077318 -0.51772749 0.38315722 42 11 -0.0032792601
3.0517797 -0.5139786 -0.37998864 4 4 -0.003276956
3.0504792 -0.51375955 0.4899528 48 12 -0.0032746522
3.1414943 -0.52965224 -0.27872407 45 5 -0.0032723481
3.0857852 -0.52081364 0.60829914 61 13 -0.003270044
3.0916135 -0.5229072 0.72389251 64 14 -0.003265436
3.0521791 -0.51623738 -0.05403265 50 7 -0.0032631322
3.0171111 -0.51084781 0.81993878 49 15 -0.0032608281
1.1006794 -0.18794486 -0.29919481 5 0 -0.003240092
3.0572779 -0.5220409 0.054137368 51 8 -0.0032377881
1.2927523 -0.22097419 -0.30278412 3 1 -0.003235484
3.0671511 -0.52482873 0.16307886 50 9 -0.0032331799
1.5712777 -0.26914793 -0.30987382 3 2 -0.0032308761
3.0791276 -0.52798438 0.27332041 48 10 -0.003228572
1.9566959 -0.33551872 -0.31443331 2 3 -0.0032262681
3.0658016 -0.52625018 0.38193855 41 11 -0.003223964
3.0598407 -0.5257768 -0.38120735 3 4 -0.0032216599
3.0584011 -0.52607906 0.49151716 44 12 -0.0032193561
3.1533709 -0.54298151 -0.27994424 46 5 -0.003217052
3.074367 -0.52937782 0.60639101 47 13 -0.0032147481
3.0783401 -0.53116834 0.72119308 52 14 -0.0032101399
3.0542994 -0.52756912 -0.054102462 47 7 -0.0032078361
3.0686107 -0.53059262 0.83443266 57 15 -0.003205532
1.1038566 -0.19225678 -0.30023012 5 0 -0.0031847961
3.0574067 -0.53305304 0.05417227 48 8 -0.003182492
1.2804548 -0.22347511 -0.30008471 3 1 -0.0031801881
3.0613656 -0.53484446 0.16286951 47 9 -0.003177884
1.5587729 -0.27232978 -0.30758414 3 2 -0.0031755799
3.0773597 -0.53819227 0.27332041 50 10 -0.0031732761
1.9477297 -0.34098426 -0.31318185 2 3 -0.003170972
3.0659015 -0.53729135 0.3821823 45 11 -0.0031686681
3.0599418 -0.5367974 -0.38145107 4 4 -0.003166364
3.0623829 -0.53777665 0.49245578 41 12 -0.0031640599
3.1632302 -0.55605513 -0.28099012 46 5 -0.0031617561
3.0783017 -0.54112583 0.6075359 47 13 -0.003159452
3.0745482 -0.54157245 0.72074318 41 14 -0.003154844
3.064255 -0.54031086 -0.05431189 47 7 -0.00315254
3.0648372 -0.54096502 0.833915 24 15 -0.0031502361
1.1069484 -0.19697823 -0.30126539 5 0 -0.0031295
3.0673404 -0.54582423 0.054381698 50 8 -0.0031271961
1.283504 -0.22862686 -0.3009845 3 1 -0.003124892
3.05948 -0.54552734 0.16286951 47 9 -0.0031225882
1.5538987 -0.2773512 -0.30682087 3 2 -0.0031202841
3.0871344 -0.5515703 0.27436629 50 10 -0.00311798
1.9542449 -0.3495118 -0.31443331 2 3 -0.0031156761
3.0718234 -0.54938793 0.38315722 46 11 -0.003113372
3.0365551 -0.5436272 -0.37876993 3 4 -0.0031110682
3.0546539 -0.54741764 0.49151716 39 12 -0.0031087641
3.1651921 -0.56779712 -0.28133872 51 5 -0.00310646
3.0782297 -0.55275172 0.60791749 45 13 -0.0031041561
3.0564461 -0.54994142 -0.054207176 42 7 -0.0030972441
3.0705354 -0.55302978 0.8359856 21 15 -0.00309494
1.0872463 -0.19739014 -0.29608899 5 0 -0.0030742041
3.0672863 -0.55742043 0.054416601 51 8 -0.0030719
1.2903265 -0.2347247 -0.30278412 3 1 -0.0030695959
3.0693469 -0.5583483 0.16349754 46 9 -0.003067292
1.5471268 -0.28171852 -0.30567604 5 2 -0.0030649882
3.0773499 -0.56091392 0.27366903 48 10 -0.0030626841
1.9724461 -0.3598769 -0.31756201 2 3 -0.00306038
3.0756476 -0.56171298 0.38388845 43 11 -0.0030580759
3.100935 -0.56689054 -0.38705707 3 4 -0.003055772
3.060497 -0.55949795 0.49276862 37 12 -0.003053468
3.1396728 -0.57453865 -0.27924702 19 5 -0.0030511641
3.0878682 -0.56561577 0.6102072 45 13 -0.00304886
3.0514269 -0.56004161 0.71624416 1 14 -0.0030442521
3.0505743 -0.55988514 -0.054137368 21 7 -0.003041948
3.0666859 -0.5633955 0.83546793 22 15 -0.0030396441
1.0922494 -0.20223929 -0.29764193 5 0 -0.003018908
3.0654209 -0.56758881 0.054416601 16 8 -0.0030166041
1.289541 -0.23900229 -0.30278412 3 1 -0.0030143
3.0713069 -0.56978762 0.1637069 36 9 -0.0030119959
1.5538551 -0.28855103 -0.30720252 25 2 -0.0030096921
3.0812497 -0.57274473 0.27419198 40 10 -0.003007388
1.9246312 -0.35775173 -0.31005314 1 3 -0.0030050841
3.0835261 -0.57372469 0.38510716 45 11 -0.00300278
3.0639107 -0.57062829 -0.38266978 3 4 -0.0030004759
3.0643511 -0.57126373 0.49370724 41 12 -0.0029981721
3.1356893 -0.58512908 -0.27907267 37 5 -0.002995868
3.0743959 -0.57369155 0.60791749 45 13 -0.0029935641
3.0725393 -0.57445508 0.72164297 5 14 -0.0029889559
1.5449392 -0.28912747 -0.027435182 39 7 -0.0029866521
3.0495102 -0.57125115 0.83132678 22 15 -0.002984348
1.0915728 -0.2058602 -0.29764193 5 0 -0.0029636121
3.0673513 -0.57902759 0.054486416 56 8 -0.002961308
1.2886988 -0.24350218 -0.30278412 3 1 -0.0029590041
3.0713632 -0.58034009 0.16381156 47 9 -0.0029567
1.5663929 -0.29625618 -0.30987382 8 2 -0.002954396
3.0852065 -0.58407122 0.27471489 47 10 -0.0029520921
1.9233707 -0.36446777 -0.31005314 1 3 -0.002949788
3.0737033 -0.58300501 0.38413221 29 11 -0.0029474841
3.0853028 -0.58576304 -0.38559461 3 4 -0.0029451801
3.0624399 -0.58142239 0.49370724 17 12 -0.002942876
3.1670067 -0.60184771 -0.28203598 41 5 -0.0029405719
3.0743034 -0.58478659 0.60829914 17 13 -0.002938268
3.0647726 -0.58408231 0.72029328 9 14 -0.0029336601
3.0684731 -0.58534253 0.83702081 24 15 -0.0029290519
1.0851561 -0.20857532 -0.29608899 5 0 -0.002908316
1.2802297 -0.24630165 -0.3009845 3 1 -0.002903708
3.0712798 -0.59143519 0.16391623 46 9 -0.0029014042
1.567277 -0.30209365 -0.31025544 4 2 -0.0028991001
3.0890179 -0.59596938 0.27523783 45 10 -0.002896796
1.9493059 -0.37608284 -0.31443331 2 3 -0.0028944919
3.0717533 -0.5931946 0.38413221 45 11 -0.002892188
3.0755477 -0.59448415 -0.38461968 4 4 -0.0028898842
3.0739677 -0.59473532 0.49589729 42 12 -0.0028875801
3.1648867 -0.61289901 -0.28203598 51 5 -0.002885276
3.0877669 -0.59796429 0.61135209 58 13 -0.0028829719
3.095341 -0.60055208 0.72794157 4 14 -0.0028783642
1.5331203 -0.29773068 -0.027260659 100 7 -0.0028760601
3.0626183 -0.59531271 0.8359856 9 15 -0.002873756
1.0996257 -0.21514012 -0.30023012 5 0 -0.0028530201
1.2831868 -0.25151867 -0.30188429 3 1 -0.0028484119
3.0633171 -0.60099882 0.16360222 52 9 -0.0028461081
1.5469483 -0.30377957 -0.30643925 4 2 -0.0028438042
3.0967996 -0.6081292 0.2761094 65 10 -0.0028415001
1.9634877 -0.38593274 -0.31693625 2 3 -0.002839196
3.0794027 -0.60582936 0.38535091 43 11 -0.0028368919
3.0773492 -0.60598326 -0.38510716 4 4 -0.0028345881
3.0738111 -0.60584384 0.49621019 34 12 -0.0028322842
3.1509998 -0.621629 -0.28099012 47 5 -0.0028299801
3.0817022 -0.60851681 0.61058879 37 13 -0.002827676
3.1104317 -0.61475378 0.73199075 59 14 -0.0028230681
3.0798366 -0.60926545 -0.054800555 52 7 -0.0028207642
3.0946329 -0.61275381 0.84530306 40 15 -0.0028184601
1.0988299 -0.21916899 -0.30023012 5 0 -0.0027977242
3.1277933 -0.62442708 0.055673175 56 8 -0.0027954201
1.2899002 -0.25774747 -0.30368391 3 1 -0.002793116
3.1100557 -0.62201488 0.16621901 68 9 -0.0027908119
1.5515997 -0.3106035 -0.30758414 3 2 -0.0027885081
3.1297154 -0.62651497 0.27924702 75 10 -0.002786204
1.9581861 -0.39235055 -0.31631052 2 3 -0.0027839001
3.0985713 -0.62140554 0.38803205 57 11 -0.002781596
3.0906775 -0.62038356 -0.38705707 4 4 -0.0027792919
3.063823 -0.61554945 0.4949587 51 12 -0.0027769881
3.1428401 -0.63199544 -0.28046718 48 5 -0.002774684
3.0775268 -0.61942041 0.6102072 10 13 -0.0027723801
3.1081576 -0.62614995 0.73199075 64 14 -0.0027677719
3.1344299 -0.63201189 -0.055812798 52 7 -0.0027654681
3.1094091 -0.62753165 0.84996176 60 15 -0.002763164
1.0942328 -0.2224253 -0.29919481 5 0 -0.0027424279
3.1470387 -0.64027226 0.056057129 70 8 -0.002740124
1.296585 -0.26402885 -0.30548352 3 1 -0.0027378201
3.1429813 -0.64058936 0.16810311 78 9 -0.0027355161
1.5523745 -0.3166807 -0.30796573 3 2 -0.002733212
3.1488719 -0.64236236 0.28116441 81 10 -0.0027309079
1.9489933 -0.39794433 -0.31505907 2 3 -0.002728604
3.1604543 -0.64587444 0.3960754 61 11 -0.0027263002
3.1117208 -0.63648093 -0.38998193 4 4 -0.0027239961
3.1254096 -0.63984919 0.50528342 21 12 -0.002721692
3.1346474 -0.64231044 -0.27994424 47 5 -0.0027193879
3.159292 -0.6485095 0.74458802 60 14 -0.0027124761
3.1164222 -0.64027643 -0.055533558 47 7 -0.002710172
3.1525025 -0.64826274 0.86238509 81 15 -0.0027078679
1.0858433 -0.22486734 -0.29712427 5 0 -0.002687132
3.1564198 -0.65423763 0.056266561 78 8 -0.0026848279
1.28416 -0.26640424 -0.30278412 3 1 -0.002682524
3.1484346 -0.65372884 0.16852181 75 9 -0.0026802202
1.5608143 -0.32436565 -0.30987382 3 2 -0.0026779161
3.1582007 -0.65633166 0.28221029 78 10 -0.002675612
1.9513896 -0.40588963 -0.3156848 2 3 -0.0026733079
3.1502922 -0.65583533 0.39510044 61 11 -0.002671004
3.0782735 -0.6414029 -0.38608211 4 4 -0.0026687002
3.1365795 -0.65412301 0.50747347 36 12 -0.0026663961
3.1556764 -0.65868038 -0.28203598 50 5 -0.002664092
3.1728354 -0.66283983 0.63005131 22 13 -0.0026617879
3.1778762 -0.66447181 0.74953693 83 14 -0.0026571802
3.1140544 -0.65169436 -0.055533558 50 7 -0.0026548761
3.1671226 -0.66337729 0.86704385 93 15 -0.002652572
1.0908431 -0.2292802 -0.29867718 5 0 -0.0026447771
3.1525075 -0.66318834 0.056231655 83 8 -0.002642473
1.2909917 -0.27181926 -0.30458373 3 1 -0.0026401691
3.152344 -0.664303 0.1688358 81 9 -0.002637865
1.5675867 -0.33034232 -0.31140029 3 2 -0.0026355612
3.1601384 -0.66652167 0.28255892 78 10 -0.0026332571
1.9424454 -0.41004568 -0.31443331 2 3 -0.002630953
3.1483324 -0.66517949 0.39510044 61 11 -0.0026286491
3.0336294 -0.64149827 -0.38071984 3 4 -0.002626345
3.1462202 -0.66588062 0.50935066 51 12 -0.0026240412
3.1537082 -0.66804051 -0.28203598 46 5 -0.0026217371
3.1690514 -0.67129064 0.62966973 41 13 -0.002619433
3.1663592 -0.6718753 0.74728745 88 14 -0.002614825
3.112107 -0.66093111 -0.055533558 48 7 -0.0026125212
3.1726992 -0.67437804 0.8691144 82 15 -0.0026102171
1.0918845 -0.23368113 -0.29919481 5 0 -0.002589481
3.1540842 -0.67502558 0.056301463 83 8 -0.0025871771
1.2709798 -0.27224246 -0.30008471 3 1 -0.002584873
3.1382887 -0.67279077 0.16820778 78 9 -0.0025825691
1.5740438 -0.33773309 -0.31292677 3 2 -0.002580265
3.1615701 -0.6789363 0.28290752 78 10 -0.002577961
1.9409295 -0.41716233 -0.31443331 2 3 -0.0025756571
3.1498728 -0.67699945 0.39558792 61 11 -0.002573353
2.992558 -0.6437344 -0.37584507 3 4 -0.0025710491
3.1477392 -0.67769051 0.50997645 63 12 -0.0025687451
3.1435664 -0.67736626 -0.28133872 23 5 -0.002566441
3.1742461 -0.68455678 0.6311962 88 13 -0.0025641371
3.1562562 -0.68183017 0.74548781 79 14 -0.0025595292
3.109781 -0.67179036 -0.055533558 48 7 -0.0025572251
3.1608846 -0.68340743 0.86652619 78 15 -0.002554921
1.0948374 -0.23831284 -0.30023012 5 0 -0.0025341851
3.1594045 -0.68828398 0.056441084 79 8 -0.002531881
1.2775894 -0.27855954 -0.30188429 3 1 -0.0025295771
3.1475096 -0.68684351 0.1688358 81 9 -0.002527273
1.5306566 -0.33401695 -0.30453119 3 2 -0.0025249692
3.163074 -0.69081837 0.28325617 81 10 -0.0025226651
1.9549001 -0.42730951 -0.31693625 2 3 -0.002520361
3.1609449 -0.69150949 0.3972941 54 11 -0.0025180571
3.0716228 -0.67253059 -0.38608211 3 4 -0.002515753
3.1375158 -0.68753159 0.50872493 68 12 -0.0025134492
3.1489675 -0.69004107 -0.28203598 10 5 -0.0025111451
3.1641665 -0.69395053 0.62966973 32 13 -0.002508841
3.1709871 -0.69660652 0.74953693 83 14 -0.002504233
3.0858147 -0.6784603 -0.055149604 10 7 -0.0025019292
3.1545851 -0.69415772 0.86549091 72 15 -0.0024996251
1.0902265 -0.24129814 -0.29919481 5 0 -0.002478889
3.1530783 -0.69844323 0.056371275 77 8 -0.0024765851
1.2918296 -0.28639174 -0.30548352 3 1 -0.002474281
3.1567919 -0.70042199 0.16946384 76 9 -0.0024719771
1.5409812 -0.34190947 -0.30682087 3 2 -0.0024696731
3.1528633 -0.70012772 0.28255892 83 10 -0.002467369
1.9379698 -0.4307023 -0.31443331 2 3 -0.0024650651
3.1585119 -0.70253903 0.3972941 56 11 -0.002462761
3.0188775 -0.67203355 -0.37974492 3 4 -0.0024604572
3.1350965 -0.69847941 0.50872493 62 12 -0.0024581531
3.1426501 -0.70016229 -0.28168735 49 5 -0.002455849
3.1598086 -0.70456398 0.62928808 17 13 -0.0024535451
3.1704381 -0.70809585 0.74998683 87 14 -0.0024489372
3.1166036 -0.69664341 -0.055742987 35 7 -0.0024466331
3.1521428 -0.70516503 0.86549091 78 15 -0.002444329
1.0950317 -0.24637444 -0.30074775 5 0 -0.0024235931
3.1311121 -0.70505238 0.056022223 29 8 -0.002421289
1.2794157 -0.2883288 -0.30278412 3 1 -0.0024189851
3.1582243 -0.71231586 0.16967319 78 9 -0.002416681
1.535948 -0.34642252 -0.30605766 3 2 -0.0024143772
3.158174 -0.71288377 0.28325617 81 10 -0.0024120731
1.9403085 -0.43833506 -0.31505907 2 3 -0.002409769
3.1579766 -0.71399778 0.39753783 61 11 -0.0024074651
3.0707252 -0.69483423 -0.38656959 3 4 -0.002405161
3.1634648 -0.71639937 0.51373082 16 12 -0.0024028569
3.1771076 -0.71948892 -0.28499928 42 5 -0.0024005531
3.163074 -0.71689129 0.63043296 18 13 -0.002398249
3.1850505 -0.72304118 0.75403595 91 14 -0.002393641
3.1219528 -0.70929027 -0.055882607 37 7 -0.002391337
3.1609647 -0.71873379 0.86859673 73 15 -0.0023890331
1.0979315 -0.25105655 -0.301783 5 0 -0.002368297
3.1539731 -0.7217769 0.056475986 61 8 -0.0023659931
1.2727027 -0.29148784 -0.3014344 3 1 -0.002363689
3.1498785 -0.72199708 0.16935916 72 9 -0.0023613852
1.5462111 -0.35441366 -0.30834734 3 2 -0.0023590811
3.1634345 -0.72568548 0.2839534 78 10 -0.002356777
1.9426172 -0.44598934 -0.3156848 2 3 -0.0023544731
3.1515956 -0.72412777 0.39705035 61 11 -0.002352169
3.0973001 -0.71222168 -0.39022568 4 4 -0.0023498652
3.1609449 -0.72743762 0.51373082 21 12 -0.0023475611
3.1668103 -0.72878742 -0.28430203 43 5 -0.002345257
3.1701183 -0.73013127 0.63234103 17 13 -0.0023429531
3.1768107 -0.73284048 0.75268626 87 14 -0.0023383452
3.1233547 -0.72108322 -0.055952415 40 7 -0.0023360411
3.1622012 -0.73063296 0.86963201 78 15 -0.002333737
1.0970484 -0.25488752 -0.301783 5 0 -0.0023130011
3.1650686 -0.73595226 0.056720324 70 8 -0.002310697
1.2773716 -0.29725367 -0.30278412 3 1 -0.0023083931
3.1533027 -0.73379648 0.16967319 75 9 -0.002306089
1.5487889 -0.36069942 -0.30911061 3 2 -0.0023037852
3.1802857 -0.74124599 0.28569651 81 10 -0.0023014811
1.9333534 -0.45097271 -0.31443331 2 3 -0.002299177
3.1567814 -0.7369296 0.39802533 61 11 -0.0022968731
3.0986612 -0.72393215 -0.39071316 4 4 -0.002294569
3.1585152 -0.73791564 0.51373082 21 12 -0.0022922652
3.1797674 -0.74346602 -0.28569651 54 5 -0.0022899611
3.1713734 -0.74208724 0.63310426 17 13 -0.002287657
3.1685412 -0.74259114 0.75133651 91 14 -0.002283049
3.138469 -0.73554337 -0.056266561 54 7 -0.0022807452
3.1672845 -0.74287981 0.87170261 78 15 -0.0022784411
1.0942719 -0.25827163 -0.30126539 5 0 -0.002257705
3.1626105 -0.74644393 0.056720324 79 8 -0.0022554011
1.2763789 -0.30148798 -0.30278412 3 1 -0.002253097
3.1584969 -0.74663699 0.17009188 18 9 -0.0022507932
1.5398782 -0.3642956 -0.30758414 2 2 -0.0022484891
3.1621685 -0.74867052 0.28430203 76 10 -0.002246185
1.9587587 -0.46375293 -0.31881347 2 3 -0.0022438811
3.1678414 -0.75059754 0.39973149 54 11 -0.002241577
3.0807915 -0.73053962 -0.38876322 4 4 -0.0022392732
3.1520762 -0.74802423 0.51310509 21 12 -0.0022369691
3.1635835 -0.75133836 -0.28447634 46 5 -0.002234665
3.1727157 -0.7535072 0.63386756 17 13 -0.0022323611
3.1755404 -0.75534916 0.75358605 87 14 -0.0022277529
3.1397729 -0.74742031 -0.056336369 62 7 -0.0022254491
3.1552756 -0.75169265 0.8691144 70 15 -0.002223145
1.076501 -0.25784895 -0.29660663 5 0 -0.0022024091
3.1638751 -0.75841123 0.056790132 77 8 -0.002200105
1.2791086 -0.3068507 -0.30368391 3 1 -0.0021978011
3.169466 -0.76092148 0.17082457 76 9 -0.002195497
1.5386617 -0.36940002 -0.30758414 2 2 -0.002193193
3.1732292 -0.7624107 0.28552222 15 10 -0.0021908891
1.9417629 -0.46689293 -0.31631052 2 3 -0.002188585
3.1729219 -0.7635085 0.40070644 51 11 -0.0021862811
3.1013815 -0.74686617 -0.39168811 4 4 -0.002183977
3.1552072 -0.76041096 0.51404375 19 12 -0.002181673
3.1473837 -0.7591067 -0.28325617 45 5 -0.0021793691
3.1643405 -0.76319647 0.63272268 15 13 -0.002177065
3.1766729 -0.76734436 0.75448585 82 14 -0.0021724571
3.1449196 -0.76025516 -0.056475986 56 7 -0.002170153
3.1582656 -0.76406479 0.87066728 75 15 -0.0021678491
1.0830568 -0.26362032 -0.29867718 5 0 -0.002147113
3.1534364 -0.76755887 0.056650508 79 8 -0.0021448091
1.2818166 -0.31223616 -0.30458373 3 1 -0.002142505
3.160969 -0.77056116 0.17051056 61 9 -0.0021402012
1.5334828 -0.37410635 -0.30682087 2 2 -0.0021378971
3.1858981 -0.77781641 0.2869167 80 10 -0.002135593
1.959228 -0.47869521 -0.3194392 2 3 -0.0021332891
3.1528823 -0.77033901 0.39851278 16 11 -0.002130985
3.1026123 -0.75863045 -0.39217559 4 4 -0.0021286812
3.1621275 -0.77376765 0.51560807 16 12 -0.0021263771
3.1601965 -0.77387977 -0.28465065 45 5 -0.002124073
3.1672425 -0.77619117 0.63386756 17 13 -0.0021217691
3.1814096 -0.78084034 0.75628549 82 14 -0.0021171612
3.1441889 -0.77170497 -0.056510892 18 7 -0.0021148571
3.1705878 -0.77877104 0.87480837 72 15 -0.002112553
1.0877565 -0.26878959 -0.30023012 5 0 -0.0020918171
3.1583669 -0.78103179 0.056790132 74 8 -0.002089513
1.2730968 -0.3150596 -0.30278412 3 1 -0.0020872091
3.1563213 -0.78111053 0.17040588 61 9 -0.002084905
1.5626584 -0.38700831 -0.31292677 2 2 -0.0020826012
3.1715603 -0.78605682 0.28587085 67 10 -0.0020802971
1.923034 -0.47697145 -0.31380758 2 3 -0.002077993
3.1673772 -0.78619367 0.40070644 60 11 -0.0020756891
3.0768259 -0.76371735 -0.38925073 4 4 -0.0020733851
3.1613431 -0.78586745 -0.28499928 45 5 -0.0020687771
3.1797552 -0.79103374 0.63692045 18 13 -0.002066473
3.1750207 -0.79044449 0.7553857 87 14 -0.0020618651
3.1861045 -0.79379445 -0.057313703 76 7 -0.0020595612
3.16785 -0.78983372 0.87480837 75 15 -0.0020572571
1.0981025 -0.27521309 -0.30333593 5 0 -0.002036521
3.1673975 -0.79441994 0.05699956 59 8 -0.0020342171
1.2796055 -0.32117727 -0.30458373 3 1 -0.002031913
3.1556509 -0.79205918 0.17051056 57 9 -0.0020296089
1.5499419 -0.38931847 -0.31063706 2 2 -0.0020273051
3.1843944 -0.80045545 0.28726533 48 10 -0.002025001
1.9291046 -0.48527348 -0.31505907 2 3 -0.0020226971
3.1570528 -0.79475439 0.39973149 47 11 -0.002020393
3.0916016 -0.77827775 -0.39144436 4 4 -0.0020180889
3.1778581 -0.80058169 0.51904958 17 12 -0.0020157851
3.1683793 -0.79878187 -0.28587085 47 5 -0.002013481
3.1904397 -0.80493587 0.63959181 18 13 -0.0020111771
3.1761608 -0.80192298 0.75628549 87 14 -0.0020065689
3.1543734 -0.79700768 -0.056790132 55 7 -0.0020042651
3.176451 -0.80317581 0.87791425 75 15 -0.002001961
1.0859499 -0.27599788 -0.30023012 5 0 -0.0019812251
3.1724975 -0.80689067 0.057139181 74 8 -0.001978921
1.2823105 -0.32638016 -0.30548352 3 1 -0.0019766171
3.1567376 -0.80405563 0.17071991 45 9 -0.0019743131
1.5448374 -0.39348698 -0.30987382 3 2 -0.001972009
3.1662772 -0.80707389 0.28587085 37 10 -0.0019697051
1.9619384 -0.50045651 -0.32069072 2 3 -0.001967401
3.1736341 -0.81012899 0.40216887 27 11 -0.0019650972
3.0927126 -0.79004735 -0.39193183 4 4 -0.0019627931
3.1405952 -0.80286312 0.51341796 14 12 -0.001960489
3.1657131 -0.80928427 -0.28587085 43 5 -0.0019581851
3.201067 -0.81891727 0.64226311 26 13 -0.001955881
3.1846685 -0.8159067 0.75898486 82 14 -0.0019512731
3.1438239 -0.80602717 -0.056650508 58 7 -0.0019489691
3.1736281 -0.81425875 0.87791425 73 15 -0.0019466651
1.0793679 -0.27833971 -0.29867718 5 0 -0.001925929
3.1657889 -0.81696045 0.057069372 77 8 -0.0019236251
1.2811633 -0.33085427 -0.30548352 3 1 -0.001921321
3.1577795 -0.8160693 0.17092925 66 9 -0.0019190171
1.547256 -0.39985952 -0.31063706 3 2 -0.0019167131
3.1692276 -0.81961799 0.28639376 65 10 -0.001914409
1.9295814 -0.49938297 -0.3156848 2 3 -0.0019121051
3.1784735 -0.82319295 0.40314382 63 11 -0.001909801
3.1302896 -0.81129682 -0.39705035 4 4 -0.0019074971
3.1645434 -0.82076395 0.51779813 39 12 -0.0019051931
3.1590116 -0.81932926 -0.28552222 43 5 -0.001902889
3.1867871 -0.8271268 0.6399734 47 13 -0.0019005851
3.1836874 -0.82750857 0.75943476 78 14 -0.0018959771
3.1564734 -0.82102323 -0.056929749 58 7 -0.0018936731
3.1670272 -0.82435846 0.87687898 72 15 -0.001891369
1.0802586 -0.28259465 -0.29919481 5 0 -0.0018706331
3.1629181 -0.82800609 0.057069372 74 8 -0.001868329
1.2724601 -0.33334893 -0.30368391 3 1 -0.0018660252
3.1761632 -0.83265835 0.17208064 72 9 -0.0018637211
1.5534471 -0.40724945 -0.31216353 3 2 -0.0018614171
3.1740558 -0.83269799 0.28709102 67 10 -0.0018591131
1.904899 -0.50009626 -0.31193036 2 3 -0.001856809
3.1698205 -0.83276957 0.40241259 65 11 -0.001854505
3.085202 -0.81111431 -0.39168811 4 4 -0.0018522011
3.182673 -0.83733392 0.5212397 58 12 -0.0018498971
3.1676934 -0.83339286 -0.28656808 46 5 -0.0018475931
