# .PCD v0.7 - Point Cloud Data file format
VERSION 0.7
FIELDS x y z intensity ring time
SIZE 4 4 4 4 2 4
TYPE F F F F U F
COUNT 1 1 1 1 1 1
WIDTH 951
HEIGHT 1
VIEWPOINT 0 0 0 1 0 0 0
POINTS 951
DATA ascii
3.6744988 -6.2730608 0.38100579 94 9 -0.069983348
0.85535461 -1.4602512 -0.32895473 3 2 -0.069981046
2.0073929 -3.4283688 0.3475771 8 10 -0.069978744
1.0916178 -1.8650899 -0.34227866 2 3 -0.069976434
1.5096613 -2.5803735 0.3670705 4 11 -0.069974132
1.5021961 -2.5686417 -0.36536431 1 4 -0.06997183
3.4593468 -5.9175911 1.0856553 14 12 -0.069969527
3.7163863 -6.3572855 -0.64425522 5 5 -0.069967218
3.4767115 -5.9496789 1.3394792 14 13 -0.069964916
3.4813731 -5.9624319 1.5940032 19 14 -0.069960311
3.6808336 -6.3090982 1.9571897 73 15 -0.069955699
0.59065294 -1.0152508 -0.31472397 5 0 -0.069934964
1.8467058 -3.1755071 0.064120144 11 8 -0.069932662
0.69437563 -1.194495 -0.3189806 4 1 -0.06993036
3.6505728 -6.2823958 0.38079646 94 9 -0.06992805
0.86011583 -1.4802028 -0.33277091 3 2 -0.069925748
1.9944124 -3.4336321 0.34740278 8 10 -0.069923446
1.0870848 -1.8723056 -0.34290439 2 3 -0.069921143
1.5066239 -2.5959284 0.36853293 7 11 -0.069918834
1.4932208 -2.5738697 -0.36536431 1 4 -0.069916531
3.4713712 -5.9860215 1.09598 12 12 -0.069914229
3.4795525 -6.002543 1.3486381 14 13 -0.069909617
3.4859335 -6.0183916 1.6057006 19 14 -0.069905013
1.8396038 -3.1773162 -0.064085238 46 7 -0.069902711
3.656853 -6.3185649 1.9561545 73 15 -0.069900408
0.58613974 -1.0156331 -0.31420633 5 0 -0.069879666
1.8396066 -3.1888626 0.06425976 8 8 -0.069877364
0.68630791 -1.1901588 -0.31718099 4 1 -0.069875062
3.6316128 -6.3002915 0.38111049 78 9 -0.069872759
0.85494363 -1.4831961 -0.33277091 3 2 -0.06987045
1.9853987 -3.4457519 0.34792572 8 10 -0.069868147
1.0765989 -1.8692417 -0.3416529 2 3 -0.069865845
1.5044863 -2.6132143 0.37023908 7 11 -0.069863543
1.4584835 -2.5343325 -0.35902712 1 4 -0.069861233
3.4740946 -6.0391974 1.1034888 9 12 -0.069858931
1.8498656 -3.2157164 -0.32456797 13 5 -0.069856629
3.4879384 -6.0657096 1.3600866 14 13 -0.069854327
3.494029 -6.0812144 1.6191977 19 14 -0.069849715
3.6082032 -6.2824678 -0.12646013 56 7 -0.069847412
3.6280413 -6.3195629 1.9525309 60 15 -0.06984511
0.58259106 -1.0176729 -0.31420633 5 0 -0.069824375
3.6003175 -6.2915988 0.12652995 30 8 -0.069822066
0.69085753 -1.2077712 -0.32123011 4 1 -0.069819763
3.5937366 -6.2851887 0.37943572 99 9 -0.069817461
0.83806711 -1.4657196 -0.32819149 3 2 -0.069815159
1.9743472 -3.4543912 0.34810004 9 10 -0.069812849
1.0779067 -1.8867099 -0.34415585 2 3 -0.069810547
1.497324 -2.6218977 0.37072656 7 11 -0.069808245
1.4575012 -2.5532002 -0.36097702 1 4 -0.069805942
3.4862797 -6.1096206 1.1141263 9 12 -0.06980364
1.8425794 -3.2290754 -0.32526523 6 5 -0.069801331
3.4978707 -6.1324191 1.3722984 14 13 -0.069799028
3.4891841 -6.1221561 1.6268461 19 14 -0.069794424
3.5793228 -6.2828612 -0.1262158 82 7 -0.069792114
3.6069157 -6.3338675 1.9530486 84 15 -0.069789812
0.57712728 -1.0163406 -0.31317106 5 0 -0.069769077
3.5694492 -6.288476 0.1262158 81 8 -0.069766775
0.68567574 -1.2084806 -0.32078022 4 1 -0.069764465
3.5699172 -6.2918601 0.37912172 99 9 -0.069762163
0.83682001 -1.4754667 -0.32971796 3 2 -0.069759861
1.9573643 -3.4525955 0.34722847 9 10 -0.069757558
1.0771579 -1.9007728 -0.3460331 2 3 -0.069755256
1.4940333 -2.6374717 0.37218902 8 11 -0.069752946
1.43293 -2.5306337 -0.35707721 1 4 -0.069750644
1.5203292 -2.6849856 0.48870131 11 12 -0.069748342
3.5978205 -6.3565369 -0.63902587 5 5 -0.06974604
3.5064123 -6.1975622 1.3841285 14 13 -0.06974373
3.5013585 -6.1936731 1.6425927 19 14 -0.069739126
3.5496113 -6.2790294 -0.12590165 100 7 -0.069736823
3.5735373 -6.3239288 1.9463193 71 15 -0.069734514
0.57167995 -1.0149825 -0.31213579 5 0 -0.069713779
3.5485761 -6.3002782 0.1262158 77 8 -0.069711477
0.67688423 -1.202257 -0.31853068 4 1 -0.069709174
3.5430355 -6.2955794 0.37859833 100 9 -0.069706872
0.83358973 -1.4818012 -0.3304812 3 2 -0.069704562
1.9384646 -3.4472506 0.3460083 11 10 -0.06970226
1.0631031 -1.8905596 -0.34353012 2 3 -0.069699958
1.4920874 -2.6545248 0.37389517 8 11 -0.069697656
1.4303648 -2.5457554 -0.35853964 1 4 -0.069695346
3.4987819 -6.22966 1.131647 18 12 -0.069693044
3.5658565 -6.3516836 -0.63728279 5 5 -0.069690742
3.5069847 -6.2468181 1.3925241 14 13 -0.069688439
3.5017743 -6.242641 1.6524904 19 14 -0.069683827
3.5257156 -6.2878933 -0.12583186 100 7 -0.069681525
3.5438845 -6.3228827 1.9421781 69 15 -0.069679223
0.57113832 -1.0219316 -0.3136887 5 0 -0.069658488
3.5275373 -6.314373 0.12625071 97 8 -0.069656178
0.67363358 -1.206314 -0.3189806 4 1 -0.069653876
3.5229847 -6.3113966 0.37880769 89 9 -0.069651574
0.8229298 -1.4742717 -0.32819149 3 2 -0.069649272
1.9202267 -3.4414804 0.3447881 11 10 -0.069646962
1.0526485 -1.8873582 -0.34227866 2 3 -0.06964466
1.4895791 -2.6718538 0.37560135 8 11 -0.069642358
1.4292003 -2.564605 -0.36048955 1 4 -0.069640055
3.5087385 -6.2987828 1.1419717 22 12 -0.069637746
3.5339704 -6.3466849 -0.63553965 5 5 -0.069635443
3.5224066 -6.3259177 1.4074073 35 13 -0.069633141
3.5235443 -6.3331609 1.6731859 41 14 -0.069628529
3.5105488 -6.3123956 -0.12607619 75 7 -0.069626227
3.5264852 -6.3436575 1.9447664 43 15 -0.069623925
0.56551641 -1.0206385 -0.31265342 5 0 -0.06960319
3.4977219 -6.312654 0.12597147 30 8 -0.069600888
0.67130697 -1.2120675 -0.3198804 4 1 -0.069598578
3.4960954 -6.314919 0.37828431 42 9 -0.069596276
0.82322448 -1.4875846 -0.3304812 3 2 -0.069593973
1.9133866 -3.458956 0.34583399 11 10 -0.069591671
1.038077 -1.8773742 -0.33977571 2 3 -0.069589362
1.4898491 -2.6944094 0.37803873 8 11 -0.069587059
1.4202393 -2.5695782 -0.36048955 1 4 -0.069584757
3.5125222 -6.3576765 1.1504192 24 12 -0.069582455
3.5238671 -6.3834734 1.4173293 22 13 -0.069577843
3.615135 -6.5542107 1.728074 55 14 -0.069573238
3.5792792 -6.4892044 -0.12935723 34 7 -0.069570936
3.5201771 -6.3846874 1.9535662 24 15 -0.069568627
0.56753254 -1.0327647 -0.31575924 5 0 -0.069547892
3.6497815 -6.6444197 0.13232414 63 8 -0.069545589
0.66779786 -1.216228 -0.32033029 4 1 -0.069543287
3.6316791 -6.6142015 0.39545053 44 9 -0.069540977
0.81802702 -1.4904491 -0.3304812 3 2 -0.069538675
1.8917177 -3.4481461 0.34409088 11 10 -0.069536373
1.033417 -1.8844502 -0.34040144 2 3 -0.069534071
1.5038186 -2.7433698 0.38413221 8 11 -0.069531761
1.4127197 -2.578248 -0.36097702 1 4 -0.069529459
3.6763568 -6.7094417 1.2117414 67 12 -0.069527157
3.6835237 -6.7280927 1.4909816 85 13 -0.069522552
3.6754704 -6.7189503 1.7681153 100 14 -0.06951794
3.650655 -6.6735864 -0.13277791 100 7 -0.069515638
3.7583091 -6.8732324 2.0990226 46 15 -0.069513336
0.55652839 -1.0211692 -0.31161815 5 0 -0.069492593
3.659306 -6.7144299 0.133476 70 8 -0.069490291
0.66655797 -1.2235696 -0.32168001 4 1 -0.069487989
3.6439104 -6.6917381 0.3993234 50 9 -0.069485687
0.81094205 -1.4898466 -0.32971796 3 2 -0.069483384
1.8787179 -3.4529781 0.34391654 11 10 -0.069481075
1.0309386 -1.8948073 -0.3416529 2 3 -0.069478773
1.5222169 -2.7989135 0.3912006 11 11 -0.06947647
1.4117473 -2.5968709 -0.36292693 1 4 -0.069474168
3.6434822 -6.7048774 1.2086128 59 12 -0.069471858
3.7526131 -6.9085779 -0.68783307 6 5 -0.069469556
3.6611917 -6.7402711 1.4909816 63 13 -0.069467254
3.6513102 -6.7276759 1.7672155 93 14 -0.069462642
3.6340125 -6.6985931 -0.13302223 88 7 -0.06946034
3.7149551 -6.850647 2.0881522 76 15 -0.069458038
0.55130124 -1.0196104 -0.31058288 5 0 -0.069437303
3.6310921 -6.7183671 0.13330148 77 8 -0.069435
0.66043025 -1.22246 -0.32078022 4 1 -0.069432691
3.6243258 -6.7114468 0.39974207 50 9 -0.069430389
0.80413139 -1.4890728 -0.32895473 3 2 -0.069428086
1.8625249 -3.4504228 0.343045 11 10 -0.069425784
1.0149381 -1.8810101 -0.33852422 2 3 -0.069423474
1.5331693 -2.842648 0.39656287 21 11 -0.069421172
1.4007897 -2.5982885 -0.36243945 1 4 -0.06941887
3.6284895 -6.7332053 1.2114286 56 12 -0.069416568
3.6395042 -6.7564664 1.4917448 66 13 -0.069411956
3.6333449 -6.7506766 1.769915 90 14 -0.069407351
3.606818 -6.7041931 -0.13288262 68 7 -0.069405042
3.680954 -6.8448567 2.0824583 69 15 -0.069402739
0.55230325 -1.0300413 -0.31317106 5 0 -0.069382004
3.6047854 -6.7257133 0.13319677 42 8 -0.069379702
0.65431845 -1.2213223 -0.3198804 4 1 -0.0693774
3.6008759 -6.7240572 0.39974207 45 9 -0.06937509
0.80448949 -1.502255 -0.33124444 3 2 -0.069372788
1.85235 -3.4604168 0.34339362 12 10 -0.069370486
1.0139575 -1.8949918 -0.34040144 2 3 -0.069368184
1.5194921 -2.8409803 0.39558792 31 11 -0.069365874
1.3748648 -2.5716512 -0.35805216 1 4 -0.069363572
3.6077578 -6.7510562 1.2123673 52 12 -0.069361269
3.6084974 -6.7552757 1.4886919 68 13 -0.069356658
3.6125112 -6.7684755 1.7712647 85 14 -0.069352053
3.5833948 -6.7167425 -0.13288262 44 7 -0.069349751
3.6606746 -6.8644834 2.0845287 73 15 -0.069347441
0.54870445 -1.0319629 -0.31317106 5 0 -0.069326706
3.5906708 -6.7559128 0.13354582 42 8 -0.069324404
0.64547986 -1.2149941 -0.31763089 4 1 -0.069322102
3.5820663 -6.7454057 0.40026543 45 9 -0.0693198
0.79739922 -1.5015862 -0.3304812 3 2 -0.06931749
1.8355891 -3.4580622 0.34252208 12 10 -0.069315188
1.01104 -1.9054993 -0.3416529 2 3 -0.069312885
1.5253779 -2.8760805 0.39973149 18 11 -0.069310583
1.3770373 -2.5974813 -0.36097702 1 4 -0.069308273
3.5906444 -6.7758265 1.2145573 42 12 -0.069305971
3.5950031 -6.7869143 1.4928896 64 13 -0.069301367
3.5879519 -6.7793217 1.7708147 85 14 -0.069296755
3.5720832 -6.7521887 -0.13333638 48 7 -0.069294453
3.6403036 -6.8840499 2.0865991 71 15 -0.06929215
0.54599983 -1.0355808 -0.3136887 5 0 -0.069271415
3.5735924 -6.7807889 0.13379015 42 8 -0.069269106
0.64940923 -1.232757 -0.32168001 4 1 -0.069266804
3.5584991 -6.7578678 0.40026543 45 9 -0.069264501
0.78849411 -1.4974118 -0.32895473 3 2 -0.069262199
1.8262907 -3.4697375 0.343045 12 10 -0.069259889
0.99886382 -1.8985281 -0.33977571 2 3 -0.069257587
1.5338089 -2.9165261 0.40460625 17 11 -0.069255285
1.3624198 -2.5917294 -0.35951459 1 4 -0.069252983
3.5678892 -6.7900677 1.2148702 37 12 -0.069250673
3.5785937 -6.8133273 1.4959426 63 13 -0.069246069
3.5678878 -6.7987075 1.7726144 85 14 -0.069241464
3.5503495 -6.7681584 -0.13340619 48 7 -0.069239154
3.6171484 -6.8984256 2.0871167 69 15 -0.069236852
0.5370115 -1.0272083 -0.31058288 5 0 -0.069216117
3.5536056 -6.8003111 0.13392976 36 8 -0.069213815
0.64329767 -1.2315618 -0.32078022 4 1 -0.069211505
3.5441318 -6.7879524 0.40131214 40 9 -0.069209203
0.77599299 -1.4862325 -0.32590178 3 2 -0.069206901
1.8058716 -3.4601948 0.3414762 12 10 -0.069204599
0.99771261 -1.9125112 -0.3416529 2 3 -0.069202289
1.5309618 -2.9359436 0.40655616 11 11 -0.069199987
1.3588703 -2.6070313 -0.36097702 1 4 -0.069197685
3.5523803 -6.8182478 1.2176861 42 12 -0.069195382
3.5647647 -6.8449306 1.5001404 57 13 -0.06919077
3.5558274 -6.8335929 1.778463 77 14 -0.069186166
3.5285478 -6.7840581 -0.133476 48 7 -0.069183864
3.5992842 -6.923008 2.0907402 63 15 -0.069181554
0.53520083 -1.0325069 -0.31161815 5 0 -0.069160819
3.5353668 -6.8233266 0.1341392 50 8 -0.069158517
0.64347583 -1.242452 -0.32302973 4 1 -0.069156215
3.5305161 -6.8197937 0.40246356 46 9 -0.069153912
0.77441067 -1.4959061 -0.32742825 3 2 -0.069151603
1.7901193 -3.4593992 0.34077895 12 10 -0.0691493
0.98014015 -1.8949274 -0.33789849 2 3 -0.069146998
1.5380262 -2.9747734 0.4111872 21 11 -0.069144696
1.3497617 -2.6117587 -0.36097702 1 4 -0.069142386
3.5349054 -6.8428912 1.2198761 52 12 -0.069140084
3.5417504 -6.859077 1.500522 54 13 -0.06913548
3.5417807 -6.8650141 1.783412 71 14 -0.069130868
3.5185945 -6.8229928 -0.13399959 52 7 -0.069128565
3.5857182 -6.9561357 2.096952 43 15 -0.069126263
0.53424257 -1.0395234 -0.31317106 5 0 -0.069105528
3.5160961 -6.8445201 0.13431372 32 8 -0.069103219
0.63735455 -1.2412235 -0.32212991 4 1 -0.069100916
3.5185459 -6.8551745 0.4038243 40 9 -0.069098614
0.77635628 -1.5125731 -0.3304812 3 2 -0.069096312
1.7798519 -3.4691727 0.34112757 12 10 -0.069094002
0.97892821 -1.9088838 -0.33977571 2 3 -0.0690917
3.5279534 -6.8823729 0.949606 59 11 -0.069089398
1.342447 -2.619988 -0.3614645 1 4 -0.069087096
3.5263057 -6.885078 1.2251948 66 12 -0.069084786
3.5321004 -6.8993592 1.5066279 45 13 -0.069080181
3.5284455 -6.8981547 1.7888107 55 14 -0.06907557
3.5011282 -6.8476968 -0.13424391 32 7 -0.069073267
3.6080093 -7.059782 2.1243868 11 15 -0.069070965
0.53061062 -1.041382 -0.31317106 4 0 -0.06905023
3.5085182 -6.8888264 0.13494201 29 8 -0.069047928
0.62329298 -1.2243375 -0.31718099 4 1 -0.069045618
3.5063708 -6.8905559 0.40518501 28 9 -0.069043316
0.77107161 -1.5152739 -0.3304812 3 2 -0.069041014
1.7677318 -3.4753642 0.34112757 12 10 -0.069038711
0.98479253 -1.9369411 -0.34415585 2 3 -0.069036402
3.5138018 -6.9141126 0.95228714 46 11 -0.0690341
1.3243028 -2.6069596 -0.35902712 1 4 -0.069031797
3.511194 -6.914958 1.2283236 48 12 -0.069029495
3.5222123 -6.9396577 1.5127338 33 13 -0.069024883
3.5202096 -6.9417138 1.796909 41 14 -0.069020279
3.5025187 -6.9098177 -0.13522124 28 7 -0.069017977
3.6409714 -7.186069 2.158551 5 15 -0.069015667
0.52646476 -1.0413197 -0.31265342 4 0 -0.068996191
3.5130148 -6.9515719 0.13595425 25 8 -0.068993889
0.62471533 -1.2367262 -0.3198804 4 1 -0.068991587
3.4982088 -6.9282804 0.40675509 23 9 -0.068989277
0.76453757 -1.5141838 -0.32971796 3 2 -0.068986975
1.7550091 -3.4773428 0.34077895 12 10 -0.068984672
0.96446711 -1.9118069 -0.33914998 2 3 -0.06898237
3.5072572 -6.9552498 0.95643073 31 11 -0.068980061
1.3214674 -2.621743 -0.36048955 1 4 -0.068977758
3.5063407 -6.9594731 1.2342681 34 12 -0.068975456
3.522469 -6.994525 1.5222743 17 13 -0.068970844
3.5229101 -7.0014811 1.8095063 16 14 -0.06896624
3.5023575 -6.9636631 -0.13605896 28 7 -0.068963937
3.6166422 -7.1940203 2.1575158 3 15 -0.068961628
0.52109557 -1.0396971 -0.31161815 4 0 -0.068940893
3.5155983 -7.0174289 0.1370014 14 8 -0.068938591
0.62301236 -1.2441267 -0.32123011 4 1 -0.068936288
3.5061862 -7.004746 0.41052327 23 9 -0.068933986
0.75924742 -1.5168433 -0.32971796 3 2 -0.068931676
1.7366198 -3.4709752 0.33955875 22 10 -0.068929374
0.96132201 -1.9222288 -0.34040144 2 3 -0.068927072
3.5202367 -7.0420246 0.96666771 6 11 -0.06892477
1.3016602 -2.6050308 -0.35756469 1 4 -0.06892246
4.0255647 -8.0705051 2.0821469 22 14 -0.068910941
3.5199645 -7.059957 -0.13769948 4 7 -0.068908639
4.0214896 -8.0693874 2.415817 25 15 -0.068906337
0.51402479 -1.0345892 -0.3095476 4 0 -0.068885602
4.161726 -8.3800688 0.16331963 22 8 -0.068883292
0.62386459 -1.2567668 -0.32392952 4 1 -0.06888099
4.1546211 -8.3730974 0.48986462 17 9 -0.068878688
0.75569344 -1.5230017 -0.3304812 3 2 -0.068876386
1.7218374 -3.4716613 0.33903584 17 10 -0.068874076
0.95636129 -1.9291124 -0.34102717 2 3 -0.068871774
4.1875329 -8.4505396 1.1580026 25 11 -0.068869472
1.3031319 -2.6309047 -0.36048955 1 4 -0.068867169
4.1825085 -8.4478102 1.4930108 20 12 -0.06886486
4.0256295 -8.1345158 1.76422 16 13 -0.068860255
4.0371003 -8.1648636 2.1028426 24 14 -0.068855651
4.1633496 -8.4238968 -0.16401772 29 7 -0.068853341
4.0292354 -8.1561203 2.4375577 23 15 -0.068851039
0.51108265 -1.0381995 -0.31006524 4 0 -0.068830304
4.1677756 -8.4663076 0.16471581 22 8 -0.068828002
0.61431152 -1.2484457 -0.32123011 3 1 -0.068825692
4.171206 -8.4807444 0.49530756 23 9 -0.06882339
0.75010628 -1.5257612 -0.3304812 3 2 -0.068821087
1.7047082 -3.4690077 0.33816427 6 10 -0.068818785
0.93883324 -1.9113283 -0.33727276 2 3 -0.068816476
4.1991434 -8.5488472 1.1694584 43 11 -0.068814173
1.2956902 -2.6390011 -0.36097702 1 4 -0.068811871
4.1808448 -8.519105 1.5030226 23 12 -0.068809569
4.0320897 -8.2232523 1.780248 18 13 -0.068804957
4.0491562 -8.2653551 2.1248875 22 14 -0.068800353
4.1770267 -8.526371 -0.16572805 24 7 -0.06879805
4.0500169 -8.2707653 2.4675808 42 15 -0.068795741
0.50576109 -1.0365047 -0.30902994 4 0 -0.068775006
4.1814246 -8.5731907 0.16649596 22 8 -0.068772703
0.60802364 -1.2471856 -0.32033029 4 1 -0.068770401
4.1748352 -8.5634727 0.4992851 17 9 -0.068768091
0.75337589 -1.5460188 -0.33429739 3 2 -0.068765789
1.6733944 -3.4355309 0.33432943 1 10 -0.068763487
0.94426155 -1.9394586 -0.3416529 3 3 -0.068761185
4.1842871 -8.598094 1.1740894 25 11 -0.068758883
1.2807993 -2.6330216 -0.35951459 1 4 -0.068756573
4.2011991 -8.6366758 1.5211689 19 12 -0.068754271
4.0479846 -8.3290958 1.8000921 16 13 -0.068749666
4.0585847 -8.358325 2.1451333 24 14 -0.068745054
4.1917853 -8.6326408 -0.1675082 28 7 -0.068742752
4.0312443 -8.3057089 2.4737926 23 15 -0.06874045
0.50634563 -1.0469596 -0.31161815 3 0 -0.068719707
4.1999869 -8.6842194 0.16838083 21 8 -0.068717405
0.60218829 -1.2456861 -0.3194305 3 1 -0.068715103
4.1901026 -8.6715069 0.50472802 17 9 -0.068712801
0.74455923 -1.5415677 -0.33277091 3 2 -0.068710499
1.6302087 -3.3767586 0.32805422 1 10 -0.068708189
0.9318136 -1.9301268 -0.33946282 3 3 -0.068705887
4.2075148 -8.7191916 1.1887137 22 11 -0.068703584
1.2755104 -2.6444066 -0.36048955 1 4 -0.068701282
4.2130609 -8.7384768 1.5364995 24 12 -0.068698972
4.0706296 -8.4468212 1.8226075 30 13 -0.068694368
4.0688877 -8.4507504 2.1653788 24 14 -0.068689756
4.2006507 -8.7283049 -0.16907892 28 7 -0.068687454
4.0047402 -8.3249512 2.4753454 19 15 -0.068685152
0.50287098 -1.048633 -0.31161815 3 0 -0.068664417
4.2154584 -8.7943993 0.17023078 21 8 -0.068662114
0.60204631 -1.2565677 -0.32168001 4 1 -0.068659805
4.2098441 -8.7905569 0.51079899 17 9 -0.068657503
0.72757149 -1.5192388 -0.32742825 3 2 -0.0686552
1.6276039 -3.4001172 0.32979733 1 10 -0.068652898
0.93274361 -1.949405 -0.34227866 2 3 -0.068650588
4.2215915 -8.8269472 1.2013881 26 11 -0.068648286
1.2577101 -2.630933 -0.35805216 1 4 -0.068645984
4.2131929 -8.8172951 1.5477628 19 12 -0.068643682
4.0842724 -8.5513287 1.8420701 10 13 -0.06863907
4.0821671 -8.5545979 2.188324 24 14 -0.068634465
4.2037315 -8.8133059 -0.17044021 10 7 -0.068632156
3.9665101 -8.3196993 2.4696515 25 15 -0.068629853
0.49423194 -1.0399129 -0.3085123 3 0 -0.068609118
0.60016418 -1.2639427 -0.32302973 4 1 -0.068604514
0.7306816 -1.5395056 -0.33124444 3 2 -0.068599902
1.6140177 -3.4021776 0.3294487 1 10 -0.0685976
0.91239142 -1.924091 -0.33727276 2 3 -0.068595298
4.2426162 -8.9510527 1.2162561 27 11 -0.068592988
1.2570179 -2.6532469 -0.36048955 1 4 -0.068590686
4.1950712 -8.8587275 1.5524559 7 12 -0.068588383
4.0854754 -8.6311903 1.8561901 17 13 -0.068583772
4.0931048 -8.655117 2.2103691 22 14 -0.068579167
1.6467865 -3.4838035 -0.067261577 1 7 -0.068576865
3.9580777 -8.377161 2.4825923 29 15 -0.068574563
0.49389154 -1.0486226 -0.31058288 3 0 -0.06855382
1.6319429 -3.4664845 0.066877626 16 8 -0.068551518
0.59077018 -1.2554502 -0.32033029 3 1 -0.068549216
1.6304462 -3.4664445 0.20076075 12 9 -0.068546914
0.72279668 -1.5367172 -0.33009958 3 2 -0.068544604
1.6139997 -3.4330335 0.33188906 2 10 -0.068542302
0.91407061 -1.9451423 -0.34040144 2 3 -0.068539999
4.2459483 -9.0394735 1.2262495 20 11 -0.068537697
1.2511234 -2.6648059 -0.3614645 1 4 -0.068535388
4.1767097 -8.9001408 1.5571488 4 12 -0.068533085
1.6346946 -3.4849472 -0.33676979 20 5 -0.068530783
4.0936751 -8.7271595 1.8737445 17 13 -0.068528481
4.1091766 -8.7681684 2.2355635 24 14 -0.068523869
1.6235882 -3.4659894 -0.066807814 16 7 -0.068521567
3.9730477 -8.4854031 2.510545 19 15 -0.068519264
0.49004477 -1.0504259 -0.31058288 3 0 -0.068498529
1.6206779 -3.4739723 0.066912524 21 8 -0.06849622
0.58638412 -1.2575048 -0.32033029 4 1 -0.068493918
1.6149609 -3.4648736 0.20034206 15 9 -0.068491615
0.72627938 -1.5589316 -0.33429739 3 2 -0.068489313
1.6148633 -3.4678249 0.33467805 4 10 -0.068487003
0.9086026 -1.9520612 -0.34102717 2 3 -0.068484701
4.2562528 -9.1442242 1.2384363 3 11 -0.068482399
1.2351148 -2.6547582 -0.35951459 1 4 -0.068480097
1.6200004 -3.4852118 -0.33624685 17 5 -0.068475485
4.1079836 -8.8418121 1.895115 17 13 -0.068473183
4.1172156 -8.8697824 2.2576087 24 14 -0.068468578
1.6089538 -3.4661946 -0.066703096 9 7 -0.068466268
3.9864967 -8.5920982 2.5379798 24 15 -0.068463966
0.49286029 -1.0661584 -0.31472397 3 0 -0.068443231
0.58340538 -1.263184 -0.32123011 3 1 -0.068438619
0.71425021 -1.5471973 -0.33124444 3 2 -0.068434015
1.6144356 -3.4987679 0.33711842 2 10 -0.068431713
0.89764637 -1.946252 -0.33946282 3 3 -0.06842941
0.94327384 -2.0461192 0.27664346 1 11 -0.068427101
4.1247139 -8.9595308 1.9172488 17 13 -0.068417884
4.134213 -8.9842949 2.2832532 22 14 -0.06841328
0.90830475 -1.9747958 -0.03794153 1 7 -0.068410978
4.003284 -8.7077656 2.5680027 22 15 -0.068408668
0.48610276 -1.060762 -0.31265342 3 0 -0.068387933
0.8985396 -1.961676 0.03766229 3 8 -0.068385631
0.57596833 -1.2580242 -0.3194305 3 1 -0.068383329
0.89377695 -1.9521786 0.11252232 3 9 -0.068381026
0.70911574 -1.5495573 -0.33124444 3 2 -0.068378717
0.89920592 -1.9658484 0.18912795 6 10 -0.068376414
0.89693689 -1.9617935 -0.3416529 4 3 -0.068374112
0.89770418 -1.9643775 0.26518771 5 11 -0.06837181
0.89522892 -1.9589611 -0.26445648 4 4 -0.0683695
0.88804489 -1.9441384 0.33852422 6 12 -0.068367198
0.90528059 -1.9827876 -0.19069678 3 5 -0.068364896
4.1430702 -9.0785379 1.9397644 17 13 -0.068362594
4.1537318 -9.1061068 2.3106971 24 14 -0.068357982
0.8835004 -1.9377681 -0.037173625 5 7 -0.06835568
4.0168457 -8.8141623 2.5954375 20 15 -0.068353377
0.47778857 -1.0518149 -0.3095476 3 0 -0.068332642
0.8887226 -1.9573617 0.037522674 8 8 -0.068330333
0.57823628 -1.2741237 -0.32302973 3 1 -0.06832803
0.88530719 -1.9516487 0.11231297 9 9 -0.068325728
0.70235127 -1.5483246 -0.3304812 3 2 -0.068323426
0.89185923 -1.9670051 0.18895365 14 10 -0.068321116
0.87901092 -1.939568 -0.33727276 6 3 -0.068318814
0.89691865 -1.9800011 0.26689389 12 11 -0.068316512
0.89329803 -1.9729242 -0.26591894 10 4 -0.06831421
0.88288188 -1.9508259 0.33914998 11 12 -0.0683119
0.89705735 -1.9821482 -0.19034813 10 5 -0.068309598
4.155828 -9.1870298 1.95999 25 13 -0.068307295
4.1676655 -9.2217722 2.3363416 46 14 -0.068302684
0.88660973 -1.962709 -0.037592482 20 7 -0.068300381
4.0313678 -8.9284897 2.6249428 22 15 -0.068298079
0.47887123 -1.0640461 -0.31265342 3 0 -0.068277344
0.56579375 -1.2583607 -0.31853068 3 1 -0.068272732
0.70901418 -1.5776275 -0.33620548 3 2 -0.068268128
0.87466252 -1.9480307 -0.33821136 7 3 -0.068263516
0.87455875 -1.9487097 0.26226285 40 11 -0.068261214
0.87525874 -1.9520932 0.33883709 41 12 -0.068256609
0.88605744 -1.9761775 -0.18947658 64 5 -0.068254299
4.1657124 -9.3038502 2.3534379 100 14 -0.068247393
4.0490842 -9.0518417 2.6570365 24 15 -0.068242781
0.47043386 -1.0551249 -0.3095476 3 0 -0.068222046
0.87096626 -1.9543856 0.037348151 86 8 -0.068219744
0.56139791 -1.2603281 -0.31853068 3 1 -0.068217441
0.87247288 -1.9596064 0.11241764 61 9 -0.068215132
0.70030856 -1.572919 -0.33467901 3 2 -0.06821283
0.87648493 -1.9695426 0.18860501 24 10 -0.068210527
0.87026596 -1.9564866 -0.33914998 10 3 -0.068208225
0.8766222 -1.9717034 0.26494396 25 11 -0.068205915
0.87305355 -1.9646004 -0.26396903 39 4 -0.068203613
0.86924124 -1.956942 0.33914998 22 12 -0.068201311
0.88238901 -1.9865417 -0.19017383 48 5 -0.068199009
4.1250482 -9.2911825 1.9760182 99 13 -0.068196706
4.1110849 -9.2684565 2.3408406 100 14 -0.068192095
0.87531728 -1.974335 -0.0376972 57 7 -0.068189792
4.0675545 -9.178957 2.690165 30 15 -0.06818749
0.47299212 -1.0708977 -0.3136887 3 0 -0.068166748
0.87140727 -1.9738781 0.03766229 16 8 -0.068164445
0.55699509 -1.26228 -0.31853068 3 1 -0.068162143
0.86562747 -1.9626399 0.11241764 9 9 -0.068159841
0.68847585 -1.5609834 -0.33162606 3 2 -0.068157539
0.87523085 -1.985352 0.18982521 6 10 -0.068155229
0.86582047 -1.9649353 -0.34008855 6 3 -0.068152927
0.86893439 -1.9729347 0.26470023 7 11 -0.068150625
0.86619043 -1.967636 -0.26396903 8 4 -0.068148322
0.86001819 -1.95454 0.33821136 30 12 -0.068146013
0.87384444 -1.9859625 -0.18982521 9 5 -0.06814371
4.0878487 -9.2947426 1.9737284 82 13 -0.068141408
4.075572 -9.2756138 2.3390412 100 14 -0.068136796
0.85716295 -1.951746 -0.037208531 8 7 -0.068134494
4.0836325 -9.3027725 2.7222588 95 15 -0.068132192
0.46925125 -1.0725422 -0.3136887 3 0 -0.068111457
4.0477424 -9.2561073 0.1763391 15 8 -0.068109155
0.55726844 -1.2749304 -0.32123011 3 1 -0.068106845
4.0435815 -9.2553911 0.5293259 23 9 -0.068104543
0.67332184 -1.5419061 -0.32704663 3 2 -0.068102241
4.0400844 -9.2517881 0.88323629 58 10 -0.068099938
0.85500544 -1.9588935 -0.33852422 4 3 -0.068097629
4.0466757 -9.275712 1.2425799 59 11 -0.068095326
0.86645806 -1.9870238 -0.26616266 3 4 -0.068093024
0.85397971 -1.9593408 0.33852422 17 12 -0.068090722
0.86576384 -1.9873254 -0.18965089 3 5 -0.068088412
4.0443482 -9.288063 1.969149 76 13 -0.06808611
4.0423932 -9.2879963 2.3385913 100 14 -0.068081506
4.0052357 -9.207016 -0.17525707 52 7 -0.068079196
4.0465126 -9.3063412 2.7191529 100 15 -0.068076894
0.45763838 -1.056528 -0.3085123 3 0 -0.068056159
4.0002842 -9.2396841 0.17574574 100 8 -0.068053856
0.55723542 -1.2876951 -0.32392952 3 1 -0.068051554
3.991395 -9.2279882 0.52691847 76 9 -0.068049245
0.67701495 -1.5659882 -0.33162606 3 2 -0.068046942
4.0061488 -9.2665339 0.88323629 100 10 -0.06804464
0.85330504 -1.9747075 -0.34071434 3 3 -0.068042338
4.0110784 -9.2868366 1.2420925 100 11 -0.068040028
1.15264 -2.6699846 -0.35707721 1 4 -0.068037726
0.84992313 -1.9697127 0.33977571 12 12 -0.068035424
4.0040612 -9.2884007 1.966096 74 13 -0.068030812
4.0006118 -9.2848539 2.3340921 100 14 -0.068026207
3.9762104 -9.2326546 -0.17546651 100 7 -0.068023905
4.0024462 -9.2980423 2.7124238 100 15 -0.068021595
0.4613764 -1.0759532 -0.3136887 3 0 -0.068000861
3.956939 -9.2322273 0.17532688 78 8 -0.067998558
0.54790777 -1.2789811 -0.32123011 3 1 -0.067996256
3.961518 -9.2473717 0.52723247 99 9 -0.067993954
0.66690767 -1.5575134 -0.32933635 3 2 -0.067991644
3.9658854 -9.2665014 0.88184178 100 10 -0.067989342
0.84139997 -1.9669244 -0.33883709 3 3 -0.06798704
3.9676483 -9.2795725 1.2391676 100 11 -0.067984737
1.1537679 -2.6997466 -0.36048955 1 4 -0.067982428
0.84148973 -1.9690347 0.33914998 12 12 -0.067980126
3.9654477 -9.2878752 1.963043 74 13 -0.067975521
3.9604368 -9.2851152 2.330493 100 14 -0.067970909
3.9384649 -9.2336025 -0.17522217 100 7 -0.067968607
3.9669356 -9.3048477 2.7103531 90 15 -0.067966305
0.45308703 -1.0668882 -0.31058288 3 0 -0.06794557
3.9317732 -9.2581835 0.1755712 100 8 -0.06794326
0.54214054 -1.2772033 -0.32033029 3 1 -0.067940958
3.9245338 -9.2501116 0.52660441 99 9 -0.067938656
0.6645329 -1.5670615 -0.33086282 3 2 -0.067936353
3.9319599 -9.276619 0.88149315 100 10 -0.067934044
0.83872718 -1.9787977 -0.34040144 2 3 -0.067931741
3.9306591 -9.2780571 1.2372177 100 11 -0.067929439
1.1479053 -2.7108696 -0.3614645 1 4 -0.067927137
0.83615124 -1.9755983 0.33977571 11 12 -0.067924827
3.933861 -9.2991667 1.9626614 74 13 -0.067920223
3.9235563 -9.2838373 2.3268938 100 14 -0.067915618
3.9046538 -9.2436085 -0.17515235 100 7 -0.067913309
3.9306731 -9.309741 2.7077651 90 15 -0.067911007
0.45104513 -1.0719463 -0.31161815 3 0 -0.067890272
3.8994334 -9.2718506 0.1755712 100 8 -0.067887969
0.53163779 -1.2647161 -0.3167311 3 1 -0.06788566
3.8860326 -9.2490234 0.52576709 99 9 -0.067883357
0.65781164 -1.5656368 -0.33009958 3 2 -0.067881055
3.8996329 -9.2859335 0.88114458 100 10 -0.067878753
0.83028603 -1.9780705 -0.33977571 2 3 -0.067876443
3.8982496 -9.2917204 1.2372177 100 11 -0.067874141
1.1246173 -2.6819081 -0.35707721 1 4 -0.067871839
0.82466841 -1.9675739 0.33789849 10 12 -0.067869537
3.9616935 -9.4521923 -0.89665824 7 5 -0.067867234
3.8998606 -9.3092194 1.9618982 72 13 -0.067864925
3.8881161 -9.2902851 2.325094 100 14 -0.06786032
3.8677332 -9.2461138 -0.17494293 100 7 -0.067858018
3.8966622 -9.3198385 2.7067297 92 15 -0.067855708
0.45324466 -1.08778 -0.31575924 3 0 -0.067834973
3.8578174 -9.2632532 0.17515235 100 8 -0.067832671
0.53321093 -1.280957 -0.32033029 3 1 -0.067830369
3.8498876 -9.2533121 0.5252437 100 9 -0.067828067
0.64932591 -1.5606729 -0.32857311 3 2 -0.067825757
3.861841 -9.2866116 0.87992436 100 10 -0.067823455
0.82185972 -1.9773085 -0.33914998 2 3 -0.067821153
3.8612216 -9.2942705 1.2357552 100 11 -0.06781885
1.1289519 -2.7188172 -0.3614645 1 4 -0.067816541
0.81628108 -1.9667916 0.33727276 10 12 -0.067814238
3.8613222 -9.3082695 1.9588453 72 13 -0.067809634
3.8541708 -9.3002005 2.3241944 100 14 -0.067805022
3.8293126 -9.2447786 -0.17466368 100 7 -0.06780272
3.8567166 -9.3155355 2.7015533 92 15 -0.067800418
0.44060329 -1.0679256 -0.3095476 3 0 -0.067779683
3.8201237 -9.2637234 0.17490801 100 8 -0.067777373
0.53319198 -1.2936207 -0.32302973 3 1 -0.067775071
3.8206069 -9.2740812 0.52566242 100 9 -0.067772768
0.64686543 -1.570191 -0.33009958 3 2 -0.067770466
3.8240917 -9.2871389 0.87870419 100 10 -0.067768157
0.80818635 -1.9637249 -0.33633414 3 3 -0.067765854
3.8242238 -9.2966776 1.2342927 100 11 -0.067763552
1.1058667 -2.6896942 -0.35707721 1 4 -0.06776125
0.81316483 -1.9787644 0.33883709 9 12 -0.06775894
3.8198783 -9.2953348 -0.8792271 7 5 -0.067756638
3.8228407 -9.3071632 1.9557924 72 13 -0.067754336
3.8157661 -9.2991734 2.3205953 100 14 -0.067749724
3.7901909 -9.2414379 -0.17434955 100 7 -0.067747422
3.8197794 -9.3182163 2.6984475 95 15 -0.067745119
0.44417852 -1.0873411 -0.31472397 3 0 -0.067724384
3.7794476 -9.2566366 0.17452405 100 8 -0.067722082
0.52425534 -1.2846482 -0.32033029 3 1 -0.067719772
3.7821772 -9.2725658 0.52482504 100 9 -0.06771747
0.6376732 -1.56335 -0.32819149 3 2 -0.067715168
3.7886398 -9.2930508 0.87800694 100 10 -0.067712866
0.80356294 -1.9720219 -0.33727276 3 3 -0.067710556
3.7842622 -9.2915859 1.2318555 100 11 -0.067708254
1.1054528 -2.7156012 -0.36000207 1 4 -0.067705952
0.80774158 -1.9852504 0.33946282 9 12 -0.067703649
3.7866309 -9.3113575 1.9538842 70 13 -0.067699037
3.7818155 -9.3088264 2.3196952 100 14 -0.067694433
3.7571557 -9.252759 -0.17431465 100 7 -0.067692131
3.7857769 -9.3279123 2.6974123 92 15 -0.067689821
0.43893161 -1.0853029 -0.3136887 3 0 -0.067671061
3.7441161 -9.2623568 0.17438444 100 8 -0.067668758
0.51684779 -1.279243 -0.31853068 3 1 -0.067666456
3.74617 -9.2720947 0.52409232 99 9 -0.067664146
0.64029843 -1.5855913 -0.3323893 3 2 -0.067661844
3.7539418 -9.3006763 0.87748402 100 10 -0.067659542
0.79519647 -1.9711509 -0.33664703 2 3 -0.06765724
3.7503195 -9.3010569 1.2313679 100 11 -0.06765493
1.092999 -2.7120783 -0.35902712 2 4 -0.067652628
0.80558431 -1.9989111 0.34134007 9 12 -0.067650326
3.7497056 -9.313591 1.9515946 68 13 -0.067645714
3.7420266 -9.3038912 2.3151963 100 14 -0.067641109
3.7219751 -9.2540359 -0.17410521 100 7 -0.067638807
3.7461767 -9.3189068 2.6912005 92 15 -0.067636497
0.43514049 -1.0868285 -0.3136887 3 0 -0.067615762
3.7133801 -9.2747221 0.17438444 100 8 -0.06761346
0.51260293 -1.2809498 -0.31853068 3 1 -0.067611158
3.7078471 -9.2702789 0.52325493 99 9 -0.067608856
0.62164205 -1.5550028 -0.32552016 3 2 -0.067606546
3.7177558 -9.3044729 0.87661242 100 10 -0.067604244
0.79525179 -1.9902865 -0.33946282 3 3 -0.067601942
3.7150388 -9.3023806 1.2299055 100 11 -0.067599639
1.0751684 -2.6935644 -0.35610226 1 4 -0.06759733
0.79347771 -1.9888679 0.33914998 9 12 -0.067595027
3.7158911 -9.3186808 1.950068 68 13 -0.067590423
3.706826 -9.3053865 2.3124969 100 14 -0.067585811
3.6852112 -9.255825 -0.17389578 100 7 -0.067583509
0.42583734 -1.073899 -0.3095476 3 0 -0.067560472
3.6780362 -9.2801914 0.17424482 100 8 -0.067558162
0.51099908 -1.2899785 -0.32033029 3 1 -0.06755586
3.6741433 -9.2750969 0.52283627 99 9 -0.067553557
0.6229865 -1.5734843 -0.32895473 3 2 -0.067551255
3.6795514 -9.2982235 0.87486929 100 10 -0.067548946
0.78757328 -1.9912134 -0.33914998 2 3 -0.067546643
3.6825445 -9.3152924 1.2299055 87 11 -0.067544341
1.080349 -2.734225 -0.36097702 1 4 -0.067542039
0.78905582 -1.9969995 0.34008855 9 12 -0.067539729
1.5983181 -4.0472054 -0.38069627 1 5 -0.067537427
3.6818993 -9.3279419 1.9493048 65 13 -0.067535125
3.6743224 -9.3182688 2.3124969 100 14 -0.06753052
3.6500974 -9.2568321 -0.17368636 100 7 -0.067528211
3.3674479 -8.5443888 2.4608517 23 15 -0.067525908
0.42561528 -1.0843704 -0.31213579 4 0 -0.067505173
3.6406662 -9.2755852 0.17393069 100 8 -0.067502871
0.50529516 -1.2880378 -0.3194305 3 1 -0.067500561
3.638829 -9.280427 0.52241755 100 9 -0.067498259
0.61820674 -1.5774772 -0.32933635 3 2 -0.067495957
3.6463439 -9.3091564 0.874695 100 10 -0.067493655
0.78312701 -1.9993318 -0.34008855 3 3 -0.067491345
3.6501873 -9.3237553 1.229418 40 11 -0.067489043
1.0698292 -2.7340956 -0.36048955 1 4 -0.067486741
0.7863971 -2.0107799 0.34196579 8 12 -0.067484438
1.584181 -4.0527601 -0.38069627 1 5 -0.067482136
3.6437984 -9.3218145 1.9454886 61 13 -0.067479827
3.6391482 -9.3195105 2.3097975 100 14 -0.067475222
3.6134 -9.2583399 -0.17347692 100 7 -0.06747292
3.3368998 -8.5542917 2.4603341 82 15 -0.06747061
0.4199174 -1.0803739 -0.31058288 4 0 -0.067449875
3.6039209 -9.2770519 0.17372125 100 8 -0.067447573
0.50079608 -1.2897937 -0.3194305 3 1 -0.067445271
3.6049666 -9.2893486 0.52220821 99 9 -0.067442961
0.61155158 -1.575858 -0.32857311 3 2 -0.067440659
3.6082497 -9.3026209 0.87295192 87 10 -0.067438357
0.76900327 -1.9836351 -0.33695987 3 3 -0.067436054
1.0617125 -2.7415156 -0.36097702 1 4 -0.067431442
0.78365195 -2.0245657 0.34384301 8 12 -0.06742914
1.5808021 -4.0840044 -0.38313666 1 5 -0.067426838
3.6069865 -9.3234901 1.9431988 61 13 -0.067424536
3.6044879 -9.3267021 2.3084476 99 14 -0.067419924
3.5817804 -9.2727623 -0.17351182 100 7 -0.067417622
3.307019 -8.5658875 2.4603341 85 15 -0.067415319
0.41961145 -1.0908484 -0.31317106 4 0 -0.067394577
3.5700808 -9.2858429 0.17365146 100 8 -0.067392275
0.49768892 -1.295172 -0.32033029 3 1 -0.067389973
3.5703704 -9.2962828 0.52189422 100 9 -0.06738767
0.60745484 -1.5816487 -0.32933635 3 2 -0.067385368
3.5764692 -9.3170195 0.87312621 97 10 -0.067383058
0.76278174 -1.9881519 -0.33727276 2 3 -0.067380756
0.94884676 -2.4744112 0.32539117 1 11 -0.067378454
1.0450324 -2.7266686 -0.35853964 1 4 -0.067376152
0.78081948 -2.0383568 0.3457202 8 12 -0.067373842
3.5744202 -9.3360243 1.9431988 59 13 -0.067369238
3.5677321 -9.3283081 2.3057485 96 14 -0.067364626
3.5486767 -9.2833405 -0.17347692 100 7 -0.067362323
3.2743409 -8.5701599 2.4582634 17 15 -0.067360021
0.41442671 -1.0886955 -0.31213579 4 0 -0.067339286
3.5340908 -9.2889032 0.17347692 100 8 -0.067336984
0.49177939 -1.2932584 -0.3194305 3 1 -0.067334674
3.5329323 -9.29562 0.5211615 99 9 -0.067332372
0.59774536 -1.5727483 -0.32704663 3 2 -0.06733007
3.5439246 -9.3294477 0.87312621 100 10 -0.067327768
0.754435 -1.9871088 -0.33664703 2 3 -0.067325458
0.95428896 -2.5148275 0.33026594 1 11 -0.067323156
1.0326924 -2.7228754 -0.35756469 1 4 -0.067320853
0.77510011 -2.044764 0.34634593 6 12 -0.067318551
3.538332 -9.3392658 1.9412909 48 13 -0.067313939
3.5303202 -9.3279457 2.302599 99 14 -0.067309335
3.5091746 -9.276968 -0.17312786 100 7 -0.067307025
3.238939 -8.5670815 2.4541223 21 15 -0.067304723
0.41539061 -1.1027904 -0.31575924 4 0 -0.067283988
3.5002358 -9.2974405 0.17340712 100 8 -0.067281686
0.48726222 -1.2949672 -0.3194305 3 1 -0.067279384
3.4962435 -9.2966795 0.52053344 99 9 -0.067277074
0.59086943 -1.5711502 -0.3262834 3 2 -0.067274772
3.5057292 -9.3268414 0.87173176 100 10 -0.067272469
0.75444132 -2.0082221 -0.33977571 2 3 -0.067270167
0.95666939 -2.547878 0.33416575 2 11 -0.067267857
1.0231813 -2.7264638 -0.35756469 1 4 -0.067265555
0.77558905 -2.0678024 0.3497875 6 12 -0.067263253
3.5050206 -9.3497219 1.9409093 42 13 -0.067258641
3.4977367 -9.3402128 2.302599 99 14 -0.067254037
3.4711637 -9.2741766 -0.17284863 100 7 -0.067251734
3.4675777 -9.2695236 2.65186 81 15 -0.067249432
0.40411747 -1.0843214 -0.31006524 4 0 -0.06722869
3.4635718 -9.298358 0.17319769 100 8 -0.067226388
0.48749816 -1.3094442 -0.3225798 4 1 -0.067224085
3.4651649 -9.3125706 0.52074283 100 9 -0.067221783
0.58401233 -1.569523 -0.32552016 3 2 -0.067219473
3.4655123 -9.3184805 0.86981428 100 10 -0.067217171
0.74811453 -2.0126948 -0.34008855 3 3 -0.067214869
0.96159601 -2.588418 0.33904055 2 11 -0.067212567
1.0150402 -2.7337406 -0.35805216 1 4 -0.067210257
0.78073692 -2.1038327 0.35541913 6 12 -0.067207955
1.5582854 -4.1990733 -0.39185223 1 5 -0.067205653
3.4662178 -9.3453331 1.9374746 36 13 -0.06720335
3.4624047 -9.3450556 2.3007994 100 14 -0.067198738
3.4401586 -9.2899885 -0.17291845 100 7 -0.067196436
3.4673858 -9.368536 2.6767068 95 15 -0.067194134
0.40433994 -1.0966008 -0.31317106 4 0 -0.067173399
3.4262526 -9.2972574 0.17295335 100 8 -0.067171089
0.47820976 -1.2983373 -0.3194305 4 1 -0.067168787
3.4284966 -9.3133631 0.52011478 94 9 -0.067166485
0.58666885 -1.5936607 -0.33009958 3 2 -0.067164183
3.4315875 -9.3267813 0.86946571 100 10 -0.067161873
0.73153979 -1.9893382 -0.33570841 3 3 -0.067159571
0.96488124 -2.6252973 0.34342784 2 11 -0.067157269
1.00686 -2.7409937 -0.35853964 1 4 -0.067154966
0.7883662 -2.147341 0.36230227 5 12 -0.067152664
3.4295173 -9.3463163 1.9351848 31 13 -0.067148052
3.4297645 -9.3570843 2.3007994 99 14 -0.067143448
3.4056454 -9.2963076 -0.17281373 100 7 -0.067141138
3.4320054 -9.3733263 2.6746361 100 15 -0.067138836
0.40117157 -1.0998203 -0.3136887 4 0 -0.067118101
3.3903537 -9.2997675 0.17277883 100 8 -0.067115799
0.47100636 -1.2926748 -0.31763089 4 1 -0.067113489
3.3904979 -9.3102608 0.51927745 99 9 -0.067111187
0.58647656 -1.6104566 -0.33315253 3 2 -0.067108884
3.4017353 -9.3461905 0.8701629 100 10 -0.067106582
0.72796774 -2.0011613 -0.33727276 2 3 -0.06710428
0.95978099 -2.6398432 0.34489027 2 11 -0.06710197
0.9918626 -2.7295656 -0.35658973 1 4 -0.067099668
0.78356272 -2.1575067 0.36355373 5 12 -0.067097366
0.7147432 -1.9690853 0.40718642 17 13 -0.067092754
3.3917658 -9.3543444 2.2972002 99 14 -0.067088149
3.372493 -9.3062592 -0.17277883 100 7 -0.067085847
3.3986082 -9.3834314 2.6741185 100 15 -0.067083538
0.39733014 -1.1012139 -0.3136887 4 0 -0.067062803
3.3578713 -9.3115444 0.17277883 100 8 -0.0670605
0.46847329 -1.2998109 -0.3189806 4 1 -0.067058198
3.3539183 -9.3107653 0.5186494 94 9 -0.067055896
0.57552886 -1.5977174 -0.33009958 3 2 -0.067053586
3.3650417 -9.3467588 0.86911702 100 10 -0.067051284
0.72565955 -2.0167012 -0.33946282 3 3 -0.067048982
0.96735466 -2.6898766 0.35098374 3 11 -0.06704668
0.97964305 -2.725539 -0.35561478 1 4 -0.06704437
0.78404105 -2.1825371 0.36730817 6 12 -0.067042068
0.71118253 -1.9808073 0.40909451 18 13 -0.067037463
3.3525145 -9.3477831 2.2927012 100 14 -0.067032851
3.332566 -9.297267 -0.17239487 100 7 -0.067030549
3.3580136 -9.373415 2.6679068 90 15 -0.067028247
0.39153582 -1.0971359 -0.31213579 5 0 -0.067007512
3.3253474 -9.3232088 0.17277883 100 8 -0.067005202
0.46851379 -1.3142874 -0.32212991 4 1 -0.0670029
3.3187158 -9.3148899 0.51823068 99 9 -0.067000598
0.56665373 -1.5904697 -0.32819149 3 2 -0.066998295
3.3270466 -9.3434343 0.86772257 100 10 -0.066995986
0.72126502 -2.0266662 -0.34071434 3 3 -0.066993684
0.97059929 -2.7287724 0.35561478 8 11 -0.066991381
0.97544217 -2.7439055 -0.35756469 1 4 -0.066989079
0.77377266 -2.1778152 0.36605671 5 12 -0.066986769
3.3645494 -9.4696636 -0.8792271 7 5 -0.066984467
0.70294994 -1.9795777 0.40833127 18 13 -0.066982165
3.3198638 -9.3594284 2.2927012 100 14 -0.066977553
3.2954149 -9.2956505 -0.17215054 100 7 -0.066975251
3.3214033 -9.3741522 2.6648009 66 15 -0.066972949
0.38770369 -1.098496 -0.31213579 4 0 -0.066952214
3.2861304 -9.3159008 0.17242977 100 8 -0.066949911
0.46262732 -1.3122392 -0.32123011 4 1 -0.066947602
3.2861803 -9.326417 0.51823068 94 9 -0.0669453
0.56044602 -1.5905864 -0.32780987 3 2 -0.066942997
3.2917655 -9.3474741 0.86702538 100 10 -0.066940695
0.70566022 -2.0049481 -0.33664703 3 3 -0.066938385
0.97424251 -2.7695963 0.36048955 9 11 -0.066936083
0.97112548 -2.7622755 -0.35951459 1 4 -0.066933781
0.77009463 -2.191685 0.3679339 5 12 -0.066931479
3.2984481 -9.3873653 -0.87051159 7 5 -0.066929169
0.69213259 -1.9709052 0.40604156 19 13 -0.066926867
3.2858827 -9.3672819 2.2918015 100 14 -0.066922262
3.2642698 -9.3108702 -0.17222033 100 7 -0.06691996
2.8606505 -8.1641645 2.3179834 14 15 -0.06691765
0.38450339 -1.1016665 -0.31265342 5 0 -0.066896915
3.2529345 -9.325428 0.17239487 100 8 -0.066894613
0.45291173 -1.299125 -0.31763089 4 1 -0.066892311
3.2539194 -9.3334923 0.51802135 100 9 -0.066890001
0.55876619 -1.6036568 -0.33009958 3 2 -0.066887699
3.2564967 -9.3513803 0.86632806 100 10 -0.066885397
0.70060551 -2.012996 -0.3375856 3 3 -0.066883095
0.96522093 -2.7748549 0.36073327 7 11 -0.066880785
0.96147704 -2.7656486 -0.35951459 1 4 -0.066878483
0.76541716 -2.2016904 0.36918539 6 12 -0.06687618
0.68653685 -1.9770184 0.40680483 26 13 -0.066871576
3.2480567 -9.363966 2.2882023 100 14 -0.066866964
3.2307553 -9.3140869 -0.17208073 100 7 -0.066864662
2.8329284 -8.1717796 2.3174658 16 15 -0.06686236
0.38065562 -1.103002 -0.31265342 5 0 -0.066841617
3.2213395 -9.3342733 0.17235997 100 8 -0.066839315
0.44860113 -1.3006197 -0.31763089 4 1 -0.066837013
3.2161133 -9.3296881 0.51718402 100 9 -0.066834711
0.54932821 -1.5944602 -0.32780987 3 2 -0.066832408
3.2238331 -9.3626909 0.86632806 100 10 -0.066830099
0.69328314 -2.0134404 -0.33727276 2 3 -0.066827796
0.952784 -2.7686553 0.35951459 7 11 -0.066825494
0.94584441 -2.7500498 -0.35707721 1 4 -0.066823192
0.76029581 -2.2118206 0.37043685 6 12 -0.066820882
0.67933917 -1.9774275 0.40642318 30 13 -0.066816278
3.2144561 -9.3673124 2.2864025 100 14 -0.066811666
3.1956282 -9.3177414 -0.1719411 100 7 -0.066809364
2.8037589 -8.1797924 2.3169482 16 15 -0.066807061
0.38074079 -1.1152276 -0.31575924 5 0 -0.066786326
3.185508 -9.3359976 0.17218544 100 8 -0.066784024
0.44280055 -1.298489 -0.3167311 4 1 -0.066781715
3.1822369 -9.3370762 0.51697463 100 9 -0.066779412
0.54150414 -1.58884 -0.3262834 3 2 -0.06677711
3.1914835 -9.3695583 0.86597949 100 10 -0.066774808
0.68879724 -2.0233281 -0.33852422 2 3 -0.066772498
0.94631064 -2.7813606 0.36073327 6 11 -0.066770196
0.93496102 -2.7495761 -0.35658973 1 4 -0.066767894
0.7512995 -2.2107205 0.36981112 6 12 -0.066765592
3.190994 -9.3949776 -0.86807114 6 5 -0.066763282
0.66801262 -1.966774 0.40375188 29 13 -0.06676098
3.1754777 -9.3600216 2.2819035 100 14 -0.066756375
3.1598728 -9.3193703 -0.17176658 100 7 -0.066754065
2.7764297 -8.1931887 2.3179834 16 15 -0.066751763
0.37171108 -1.1019716 -0.31161815 5 0 -0.066731028
3.1516213 -9.3432713 0.17211564 100 8 -0.066728726
0.4451133 -1.3203396 -0.32168001 4 1 -0.066726424
3.1464372 -9.3386631 0.51645124 100 9 -0.066724114
0.53317118 -1.5833716 -0.32475692 3 2 -0.066721812
3.1507647 -9.3623104 0.8642363 100 10 -0.06671951
0.68641466 -2.0408177 -0.34102717 2 3 -0.066717207
0.94165909 -2.7996991 0.36268318 6 11 -0.066714898
0.93041784 -2.7678759 -0.35853964 1 4 -0.066712596
0.74609411 -2.22082 0.37106261 6 12 -0.066710293
0.66579634 -1.9840991 0.40680483 34 13 -0.066705681
3.1411498 -9.3715973 2.2819035 100 14 -0.066701077
3.1228743 -9.3170719 -0.17152224 100 7 -0.066698775
2.744132 -8.1918383 2.3148775 16 15 -0.066696465
0.36664012 -1.0995969 -0.31058288 5 0 -0.06667573
3.1116657 -9.3376856 0.17180149 100 8 -0.066673428
0.43842351 -1.3164153 -0.32033029 4 1 -0.066671126
3.1106641 -9.3401146 0.51592791 100 9 -0.066668823
0.53260106 -1.6001253 -0.32780987 3 2 -0.066666514
3.1155505 -9.3656893 0.8635391 100 10 -0.066664211
0.67554742 -2.0319543 -0.33914998 2 3 -0.066661909
0.92513192 -2.7842934 0.36024579 5 11 -0.066659607
0.92652291 -2.7901068 -0.36097702 1 4 -0.066657297
0.73584747 -2.2159116 0.36981112 6 12 -0.066654995
0.65639395 -1.9789574 0.40527833 37 13 -0.066650391
3.1071918 -9.3788052 2.2810037 100 14 -0.066645779
3.0890746 -9.3241196 -0.17145245 100 7 -0.066643476
2.7155192 -8.2013674 2.3148775 16 15 -0.066641174
0.36159009 -1.0972005 -0.3095476 5 0 -0.066620439
3.0781796 -9.3403559 0.17166187 100 8 -0.06661813
0.43283659 -1.3141601 -0.3194305 3 1 -0.066615827
3.0799155 -9.3566084 0.51624191 100 9 -0.066613525
0.52578521 -1.5982449 -0.32704663 3 2 -0.066611223
3.0815949 -9.3727217 0.86319047 100 10 -0.066608913
0.6626358 -2.0154176 -0.33602124 2 3 -0.066606611
0.9189921 -2.7967756 0.3614645 6 11 -0.066604309
0.91478795 -2.78562 -0.36000207 1 4 -0.066602007
0.73180389 -2.2297282 0.37168834 6 12 -0.066599697
3.0700827 -9.359726 -0.86179596 6 5 -0.066597395
0.64615667 -1.9699305 0.40298861 36 13 -0.066595092
3.0772867 -9.3927612 2.2819035 100 14 -0.066590488
3.0540204 -9.3272448 -0.17131284 100 7 -0.066588178
2.6868751 -8.2107964 2.3148775 16 15 -0.066585876
0.35914689 -1.1020671 -0.31058288 5 0 -0.066565141
3.0399842 -9.333931 0.17134774 71 8 -0.066562839
0.42221484 -1.2971326 -0.31493148 3 1 -0.066560529
3.0410588 -9.3483095 0.51519525 88 9 -0.066558227
0.5265559 -1.6186492 -0.33086282 3 2 -0.066555925
3.048033 -9.3753099 0.86249328 80 10 -0.066553622
0.65254426 -2.0083249 -0.33445692 3 3 -0.066551313
0.9049322 -2.7867501 0.35975835 4 11 -0.066549011
0.90751004 -2.7963488 -0.36097702 1 4 -0.066546708
0.7252351 -2.2360272 0.37231407 6 12 -0.066544406
0.63988179 -1.9740417 0.40337023 40 13 -0.066539794
3.0390797 -9.3867598 2.2778544 100 14 -0.06653519
2.6593857 -8.2238026 2.3159127 16 15 -0.066530578
0.35944292 -1.116186 -0.31420633 5 0 -0.066509843
0.42066804 -1.3078742 -0.31718099 4 1 -0.066505238
0.51249111 -1.5943104 -0.32552016 3 2 -0.066500627
0.65217257 -2.0312793 -0.33789849 2 3 -0.066496022
0.89641231 -2.7936721 0.36024579 4 11 -0.06649372
0.8904689 -2.7768164 -0.35805216 1 4 -0.06649141
0.7162199 -2.2347827 0.37168834 6 12 -0.066489108
1.0756775 -3.3563788 -0.308357 3 5 -0.066486806
0.63418472 -1.9800024 0.40413347 38 13 -0.066484503
3.0057013 -9.3954544 2.2774045 100 14 -0.066479892
1.0565647 -3.3046794 -0.060559854 4 7 -0.066477589
2.6294875 -8.2293539 2.3148775 16 15 -0.066475287
0.35320151 -1.1100703 -0.31213579 5 0 -0.066454552
1.0622799 -3.340637 0.061188139 17 8 -0.066452242
0.41905132 -1.3186207 -0.3194305 3 1 -0.06644994
1.0513569 -3.3102872 0.18202448 5 9 -0.066447638
0.50157422 -1.5792493 -0.32208559 3 2 -0.066445336
1.0470117 -3.2986012 0.30277905 8 10 -0.066443026
0.64388353 -2.029778 -0.33727276 2 3 -0.066440724
0.88785487 -2.8005688 0.36073327 4 11 -0.066438422
0.88077086 -2.7799075 -0.35805216 1 4 -0.066436119
0.71020329 -2.242919 0.37262696 6 12 -0.06643381
1.0573386 -3.3392198 -0.30643961 26 5 -0.066431507
0.62845427 -1.9859477 0.40489674 40 13 -0.066429205
2.9728863 -9.4058895 2.2774045 100 14 -0.066424593
1.040204 -3.293093 -0.060280614 7 7 -0.066422291
2.6001651 -8.2366409 2.3143599 16 15 -0.066419989
0.34816593 -1.1076105 -0.31110048 5 0 -0.066399254
1.0326329 -3.2870913 0.060140993 12 8 -0.066396952
0.41619691 -1.3256533 -0.32078022 4 1 -0.066394642
1.0272387 -3.2739179 0.17982636 12 9 -0.06639234
0.50840116 -1.6203281 -0.33009958 3 2 -0.066390038
0.63443136 -2.024473 -0.33602124 3 3 -0.066385426
0.87926024 -2.8074396 0.36122078 4 11 -0.066383123
0.87224799 -2.7867539 -0.35853964 1 4 -0.066380821
0.6988315 -2.2340724 0.37074974 6 12 -0.066378519
1.0314009 -3.2972534 -0.30225611 8 5 -0.066376209
0.61741757 -1.9750125 0.40222538 42 13 -0.066373907
2.9406168 -9.4180689 2.2778544 100 14 -0.066369303
1.0245333 -3.2833409 -0.060036276 41 7 -0.066367
2.6093554 -8.3673887 2.3485241 16 15 -0.066364691
0.34678385 -1.1161385 -0.31317106 5 0 -0.066331625
0.40371275 -1.3009695 -0.31448159 3 1 -0.066327021
1.0199081 -3.2866666 0.18034972 22 9 -0.066324711
0.49779156 -1.6051285 -0.32666501 3 2 -0.066322409
1.0251247 -3.3075542 0.30295336 11 10 -0.066320106
0.62537658 -2.0190179 -0.33476979 2 3 -0.066317804
0.86524975 -2.7951694 0.35927087 4 11 -0.066315494
0.92988271 -3.0058229 -0.38632584 3 4 -0.066313192
0.69881511 -2.2589025 0.37450415 6 12 -0.06631089
1.0186956 -3.294945 -0.30173317 86 5 -0.066308588
0.61028522 -1.9751735 0.40184379 47 13 -0.066306278
2.5433276 -8.2416172 1.9912667 90 14 -0.066301674
1.0130339 -3.282722 -0.059966467 24 7 -0.066299371
0.34288579 -1.1173421 -0.31317106 5 0 -0.066276327
0.40111056 -1.3078903 -0.31583127 4 1 -0.066271722
2.5114167 -8.1940088 0.44914722 24 9 -0.06626942
0.49563545 -1.6181195 -0.32895473 3 2 -0.06626711
0.61809975 -2.0191917 -0.33445692 3 3 -0.066262506
0.85946006 -2.8094127 0.36073327 4 11 -0.066260204
0.85142446 -2.7848845 -0.35756469 1 4 -0.066257894
0.6880396 -2.2518823 0.3729398 6 12 -0.066255592
1.0089338 -3.3041973 -0.30225611 7 5 -0.06625329
0.60487884 -1.9809417 0.40260699 56 13 -0.066250987
2.5131409 -8.2406855 1.9890171 100 14 -0.066246375
2.4992592 -8.2002926 -0.14963694 81 7 -0.066244073
