# .PCD v0.7 - Point Cloud Data file format
VERSION 0.7
FIELDS x y z intensity ring time
SIZE 4 4 4 4 2 4
TYPE F F F F U F
COUNT 1 1 1 1 1 1
WIDTH 956
HEIGHT 1
VIEWPOINT 0 0 0 1 0 0 0
POINTS 956
DATA ascii
3.2034011 -3.6195128 1.2951305 33 15 -0.058859617
0.77353358 -0.87616771 -0.31317106 5 0 -0.058838878
3.2153945 -3.643302 0.084818691 34 8 -0.058836576
0.92309248 -1.0463063 -0.32212991 4 1 -0.058834273
3.2081993 -3.6364276 0.25414345 42 9 -0.058831967
1.1128834 -1.2618744 -0.32704663 3 2 -0.058829665
2.2702091 -2.5750465 0.30033869 40 10 -0.058827359
1.4340774 -1.6272141 -0.34353012 2 3 -0.058825057
1.8476415 -2.097213 0.34318411 6 11 -0.058822751
1.9299306 -2.1913884 -0.35853964 1 4 -0.058820449
3.2051601 -3.63938 0.76809335 31 12 -0.058818143
3.1847277 -3.6174524 -0.42165947 8 5 -0.058815841
3.2140598 -3.6520545 0.94564945 35 13 -0.058813535
3.2031891 -3.6422656 1.1198063 40 14 -0.058808926
3.1931841 -3.6308892 -0.084399842 54 7 -0.058806624
3.2092381 -3.6504288 1.3023775 37 15 -0.058804318
0.76282942 -0.87014657 -0.31006524 4 0 -0.058783583
3.2046132 -3.655448 0.084853604 50 8 -0.058781281
0.91833335 -1.047896 -0.32168001 3 1 -0.058778975
3.1954861 -3.6476045 0.25414345 50 9 -0.058776673
1.1291668 -1.2893827 -0.33315253 3 2 -0.058774367
2.2638311 -2.5859537 0.30068728 41 10 -0.058772065
1.4234688 -1.6260155 -0.34227866 2 3 -0.058769759
1.8432914 -2.1063161 0.34367159 5 11 -0.058767457
1.9331092 -2.2097287 -0.36048955 1 4 -0.058765151
3.1898355 -3.6475718 0.76746756 40 12 -0.058762848
3.1484771 -3.6015465 -0.41852185 6 5 -0.058760542
3.2083921 -3.6700833 0.94755751 37 13 -0.05875824
3.2128887 -3.6778171 1.1274546 40 14 -0.058753632
3.1857517 -3.6480379 -0.084539458 41 7 -0.058751326
3.2028289 -3.668885 1.3049657 35 15 -0.058749024
0.75740224 -0.86975759 -0.30902994 4 0 -0.058728289
3.1944599 -3.6696284 0.084923409 44 8 -0.058725983
0.91211146 -1.0481552 -0.32078022 3 1 -0.058723681
3.1997752 -3.6783264 0.25550416 45 9 -0.058721375
1.1248848 -1.2931201 -0.33315253 3 2 -0.058719072
2.2683177 -2.6084812 0.30243042 41 10 -0.058716767
1.4151924 -1.6279925 -0.3416529 2 3 -0.058714464
1.8176985 -2.0917602 0.34025922 5 11 -0.058712158
1.9279876 -2.2194602 -0.36097702 1 4 -0.058709856
3.1991019 -3.6840398 0.77278632 40 12 -0.05870755
2.3239748 -2.6762559 -0.31010011 2 5 -0.058705248
3.2084312 -3.6960859 0.9513737 33 13 -0.058702942
3.2166314 -3.7081466 1.1333034 42 14 -0.058698334
3.1991997 -3.6893516 -0.085237555 40 7 -0.058696032
3.2089827 -3.7019389 1.3127302 37 15 -0.058693729
0.76320684 -0.88262516 -0.31265342 4 0 -0.058672991
3.2077849 -3.7110136 0.085621506 46 8 -0.058670688
0.8931576 -1.0336384 -0.31538138 3 1 -0.058668382
3.1934435 -3.6970303 0.25602752 47 9 -0.05866608
1.1203642 -1.2970388 -0.33315253 3 2 -0.058663774
2.2605007 -2.6178911 0.30260473 42 10 -0.058661472
1.4275715 -1.6538577 -0.3460331 2 3 -0.058659166
1.8064952 -2.0935836 0.33952799 6 11 -0.058656864
2.0109892 -2.3313978 -0.37803873 2 4 -0.058654558
3.2042828 -3.7161288 0.77716655 40 12 -0.058652256
2.3055112 -2.6737895 -0.30887994 20 5 -0.05864995
3.2134552 -3.7280819 0.95671636 34 13 -0.058647648
3.2163861 -3.734117 1.1378024 42 14 -0.058643039
3.208483 -3.7262573 -0.085830934 30 7 -0.058640737
3.2199862 -3.7409372 1.3225653 43 15 -0.058638431
0.76137972 -0.88674968 -0.31317106 4 0 -0.058617696
3.2143478 -3.7449498 0.086145081 44 8 -0.05861539
0.90223384 -1.0515393 -0.3198804 3 1 -0.058613088
3.2000239 -3.730895 0.25759763 45 9 -0.058610782
1.108161 -1.2920005 -0.33086282 3 2 -0.05860848
2.2630203 -2.6393788 0.30417353 41 10 -0.058606174
1.4089347 -1.6438323 -0.34290439 2 3 -0.058603872
1.7927185 -2.0923393 0.33830932 4 11 -0.058601569
1.9072809 -2.2268353 -0.36000207 1 4 -0.058599263
3.2015688 -3.7392955 0.77966946 37 12 -0.058596961
3.2259541 -3.7691073 0.96434873 31 13 -0.058592353
3.2185316 -3.7630932 1.1432012 42 14 -0.058587745
2.2533233 -2.6355069 -0.060524948 4 7 -0.058585439
3.2269907 -3.775651 1.3308476 43 15 -0.058583137
0.75561833 -0.8865937 -0.31213579 4 0 -0.058562398
0.89350253 -1.0487487 -0.31808078 3 1 -0.058557793
3.2102907 -3.769412 0.2594817 44 9 -0.058555488
1.1059633 -1.2990432 -0.33162606 3 2 -0.058553185
2.2481661 -2.6415861 0.30347627 40 10 -0.058550879
1.4080204 -1.6550033 -0.34415585 2 3 -0.058548577
1.8239934 -2.1439428 0.3456215 4 11 -0.058546271
1.8943517 -2.2274306 -0.35902712 1 4 -0.058543969
3.2012923 -3.7654982 0.78279817 40 12 -0.058541663
3.4436712 -4.0520277 -0.46523735 2 5 -0.058539361
3.227371 -3.7988596 0.9689281 33 13 -0.058537055
3.2312028 -3.806062 1.1526492 51 14 -0.058532447
2.2441099 -2.6433566 -0.060524948 15 7 -0.058530144
3.2312918 -3.8075132 1.3380945 48 15 -0.058527838
0.74253523 -0.87742841 -0.30799466 4 0 -0.058507103
2.227869 -2.6335287 0.060210802 45 8 -0.058504801
0.88713592 -1.0490407 -0.31718099 3 1 -0.058502495
1.1014222 -1.3028957 -0.33162606 3 2 -0.058497887
3.5712309 -4.2259812 0.484063 36 10 -0.058495585
1.3920367 -1.647836 -0.3416529 2 3 -0.058493279
1.821246 -2.1566803 0.34659645 4 11 -0.058490977
1.8861753 -2.2343588 -0.35902712 1 4 -0.058488671
3.2065787 -3.7998514 0.7874912 30 12 -0.058486369
3.5701108 -4.2321415 -0.4844116 2 5 -0.058484063
3.2330794 -3.8326123 0.97465241 20 13 -0.05848176
3.2241778 -3.8247674 1.1548988 29 14 -0.058477152
3.5603607 -4.2250695 -0.096442007 42 7 -0.058474846
3.226027 -3.8296733 1.341718 30 15 -0.058472544
0.75049722 -0.89345717 -0.31265342 4 0 -0.058451809
3.5704396 -4.2505622 0.096895754 23 8 -0.058449503
0.88597506 -1.0551157 -0.31808078 3 1 -0.058447201
2.2188909 -2.643434 0.18087308 28 9 -0.058444895
1.0991634 -1.3099319 -0.3323893 3 2 -0.058442593
3.5813258 -4.2695713 0.48754922 54 10 -0.058440287
1.393603 -1.6620091 -0.34353012 2 3 -0.058437984
1.825186 -2.1767147 0.34879011 4 11 -0.058435678
1.8834652 -2.2470148 -0.36000207 1 4 -0.058433376
3.219938 -3.8428173 0.79406142 34 12 -0.05843107
3.5450814 -4.2323585 -0.48301712 2 5 -0.058428768
3.2290938 -3.856478 0.9777053 22 13 -0.058426462
3.2351482 -3.8664503 1.1638968 27 14 -0.058421854
3.5648391 -4.2604766 -0.096965574 45 7 -0.058419552
3.2361887 -3.8690658 1.3515531 28 15 -0.058417246
0.75511396 -0.90470934 -0.31575924 4 0 -0.058391571
3.5742602 -4.2838755 0.09738443 36 8 -0.058389269
0.88247126 -1.0580478 -0.31808078 3 1 -0.058386963
3.5645745 -4.2752995 0.29172066 26 9 -0.058384661
1.1013287 -1.320918 -0.33429739 3 2 -0.058382355
3.5819268 -4.2976365 0.48946664 54 10 -0.058380052
1.3782591 -1.654238 -0.34102717 2 3 -0.058377746
1.8293914 -2.1964829 0.35098374 3 11 -0.058375444
1.8760035 -2.253248 -0.36000207 1 4 -0.058373138
3.2286589 -3.8792853 0.79938018 31 12 -0.058370836
2.3018305 -2.765686 -0.31480655 2 5 -0.05836853
3.2383084 -3.8922606 0.98419291 23 13 -0.058366228
3.2379355 -3.8945765 1.1692957 27 14 -0.05836162
3.5698636 -4.2953434 -0.097489148 47 7 -0.058359314
3.2455623 -3.9065232 1.3608706 30 15 -0.058357012
0.75195134 -0.90733969 -0.31575924 4 0 -0.058336277
3.5771449 -4.317884 0.097873099 28 8 -0.058333971
0.88125855 -1.0641236 -0.3189806 3 1 -0.058331668
3.5661864 -4.3077164 0.2930814 37 9 -0.058329362
1.0891995 -1.3156806 -0.33200768 3 2 -0.05832706
3.5961196 -4.3454175 0.49347579 56 10 -0.058324754
1.3901047 -1.6803476 -0.34540737 2 3 -0.058322452
1.8672559 -2.2579267 0.35975835 3 11 -0.058320146
1.8833045 -2.2781427 -0.36292693 1 4 -0.058317844
3.2264233 -3.9042363 0.80219603 30 12 -0.058315538
2.2997775 -2.7829189 -0.3158524 18 5 -0.058313236
3.2447078 -3.9277573 0.99029869 23 13 -0.05831093
3.237968 -3.9223869 1.1742445 24 14 -0.058306322
3.5612123 -4.3154893 -0.097663663 23 7 -0.058304019
3.2528048 -3.9431622 1.3696705 26 15 -0.058301713
0.74018711 -0.89951688 -0.31213579 4 0 -0.058280978
3.5798359 -4.351965 0.09836176 23 8 -0.058278676
0.884965 -1.0762246 -0.32168001 3 1 -0.05827637
3.5777614 -4.3525391 0.2952795 40 9 -0.058274068
1.0821069 -1.3164413 -0.33124444 3 2 -0.058271762
3.5935783 -4.3733373 0.4952189 53 10 -0.05826946
1.3792151 -1.6790839 -0.34415585 2 3 -0.058267154
1.8807782 -2.2905118 0.36390188 4 11 -0.058264852
1.8551892 -2.2601526 -0.35902712 1 4 -0.058262546
3.225306 -3.9307456 0.80532473 30 12 -0.058260243
3.2521441 -3.9648652 0.9967863 22 13 -0.058255635
3.2477281 -3.9623015 1.1827927 28 14 -0.058251027
2.2495978 -2.7455368 -0.061956044 3 7 -0.058248725
3.2475896 -3.9649544 1.3732939 28 15 -0.058246419
0.73459798 -0.89910305 -0.31110048 4 0 -0.058225684
0.87873793 -1.0762882 -0.32078022 3 1 -0.058221076
3.0776057 -3.770829 0.25508547 20 9 -0.05821877
1.0725396 -1.3141265 -0.32971796 3 2 -0.058216467
3.5896268 -4.3997488 0.49678773 53 10 -0.058214162
1.3733456 -1.6838881 -0.34415585 2 3 -0.058211859
1.8840609 -2.3109102 0.36609554 3 11 -0.058209553
1.8598295 -2.2820022 -0.3614645 1 4 -0.058207251
3.2377667 -3.9741406 0.81189495 30 12 -0.058204949
3.6054308 -4.4254236 -0.4994024 2 5 -0.058202643
3.2531612 -3.9944603 1.0013657 22 13 -0.058200341
3.2498684 -3.9932628 1.1886414 28 14 -0.058195733
2.2412622 -2.7549241 -0.06199095 33 7 -0.058193427
3.2483566 -3.9942522 1.3795056 28 15 -0.058191124
0.73267221 -0.90316218 -0.31161815 5 0 -0.058170386
2.2318938 -2.7522285 0.06185133 17 8 -0.058168083
0.8798843 -1.085404 -0.3225798 3 1 -0.058165777
3.0694544 -3.7877562 0.25550416 20 9 -0.058163475
1.0654739 -1.3148119 -0.32895473 3 2 -0.058161169
1.3724321 -1.6948125 -0.34540737 2 3 -0.058156565
1.873485 -2.3143868 0.36560807 3 11 -0.058154259
1.8443602 -2.2792215 -0.36000207 1 4 -0.058151957
3.2387829 -4.0038486 0.81564939 32 12 -0.058149651
3.5874548 -4.4348836 -0.49905378 2 5 -0.058147348
3.2540121 -4.0241108 1.0059451 22 13 -0.058145043
3.2628548 -4.0379286 1.1985391 30 14 -0.058140434
3.5711143 -4.4209914 -0.099199481 5 7 -0.058138132
3.252599 -4.0281115 1.3872701 26 15 -0.058135826
0.73315054 -0.9102276 -0.31317106 5 0 -0.058115091
2.2297978 -2.7693479 0.062060758 6 8 -0.058112785
0.86875898 -1.0793604 -0.3198804 3 1 -0.058110483
2.2211072 -2.7605264 0.18568799 15 9 -0.058108181
1.0694928 -1.3292303 -0.33162606 3 2 -0.058105875
1.3615565 -1.6934347 -0.34415585 2 3 -0.058101267
1.744766 -2.1708269 0.34196541 1 11 -0.058098964
1.843853 -2.2949305 -0.3614645 1 4 -0.058096658
3.2520006 -4.0490127 0.82253253 31 12 -0.058094356
3.2596111 -4.0599394 1.012051 19 13 -0.058089748
3.2584963 -4.0614538 1.2021384 28 14 -0.05808514
3.0226867 -3.7688835 -0.08433003 16 7 -0.058082834
3.2578526 -4.0635567 1.3955523 26 15 -0.058080532
0.73962128 -0.924851 -0.31731215 5 0 -0.058059797
3.0617144 -3.8298564 0.0855866 4 8 -0.058057491
0.86498594 -1.0823863 -0.3198804 3 1 -0.058055189
2.2127047 -2.7698233 0.18579267 9 9 -0.058052883
1.0709734 -1.3406249 -0.33353412 3 2 -0.05805058
2.2951002 -2.8739934 0.32177898 8 10 -0.058048274
1.3630314 -1.7074399 -0.3460331 2 3 -0.058045972
1.7000319 -2.1303558 0.33465323 2 11 -0.058043666
1.8234519 -2.2858346 -0.35902712 1 4 -0.058041364
3.2501628 -4.0757837 0.82566124 30 12 -0.058039058
3.2698946 -4.1019964 1.0196834 22 13 -0.05803445
3.2564411 -4.0880456 1.2066375 26 14 -0.058029842
3.5713048 -4.4849224 -0.1000721 99 7 -0.058027539
3.2677109 -4.1051335 1.4059051 26 15 -0.058025233
0.72197294 -0.90927196 -0.31110048 5 0 -0.058004498
3.0532997 -3.8467855 0.085726224 6 8 -0.058002196
0.85877991 -1.082346 -0.3189806 3 1 -0.05799989
3.0085218 -3.7930887 0.25372472 7 9 -0.057997588
1.054087 -1.3289734 -0.32971796 3 2 -0.057995282
2.2974327 -2.8975995 0.32352212 11 10 -0.05799298
1.3546093 -1.7090913 -0.34540737 2 3 -0.057990674
1.6950508 -2.1393888 0.33514073 3 11 -0.057988372
1.8425766 -2.3264205 -0.36438939 1 4 -0.057986066
3.2506301 -4.105689 0.82941562 31 12 -0.057983764
3.2811422 -4.1457138 1.0276973 24 13 -0.057979155
3.2651193 -4.1284289 1.2151856 23 14 -0.057974547
3.5506663 -4.4910865 -0.099932484 74 7 -0.057972245
3.2701311 -4.1377339 1.413152 26 15 -0.057969939
0.72118664 -0.91482091 -0.31213579 5 0 -0.057949204
2.2006757 -2.792546 0.062060758 1 8 -0.057946898
0.86102617 -1.092991 -0.32123011 4 1 -0.057944596
2.9922187 -3.7983377 0.25341073 7 9 -0.05794229
1.0615879 -1.348069 -0.33353412 3 2 -0.057939988
2.3020928 -2.9243877 0.32561383 12 10 -0.057937682
1.3437487 -1.7075998 -0.34415585 2 3 -0.057935379
1.6826634 -2.1390517 0.33416575 4 11 -0.057933073
1.8270822 -2.3234758 -0.36292693 1 4 -0.057930771
3.2601972 -4.1459489 0.83536011 32 12 -0.057928465
3.2751424 -4.1679473 1.0303686 21 13 -0.057923861
3.2687414 -4.1627917 1.2219341 23 14 -0.057919253
3.5295789 -4.4949727 -0.099757954 85 7 -0.057916947
3.2718987 -4.1683106 1.4198813 24 15 -0.057914644
0.71798903 -0.91733265 -0.31213579 5 0 -0.057893906
2.1815434 -2.7872305 0.061781518 2 8 -0.057891604
0.85739702 -1.0958403 -0.32123011 4 1 -0.057889298
2.970329 -3.7977471 0.25267801 7 9 -0.057886995
1.0568758 -1.3517665 -0.33353412 3 2 -0.057884689
2.3127284 -2.9590921 0.32857716 13 10 -0.057882387
1.3356458 -1.7089335 -0.34353012 2 3 -0.057880081
1.6657835 -2.1321056 0.33221585 3 11 -0.057877779
1.8193673 -2.3295219 -0.36292693 1 4 -0.057875477
3.2627239 -4.1791024 0.83974028 31 12 -0.057873171
3.524219 -4.5156665 -0.50114554 2 5 -0.057870869
3.2733817 -4.194262 1.0341848 21 13 -0.057868563
3.2812846 -4.2074151 1.231832 23 14 -0.057863954
3.4929659 -4.4804554 -0.099164575 13 7 -0.057861652
3.2775166 -4.2056108 1.4286813 26 15 -0.057859346
0.71731424 -0.92275906 -0.31317106 5 0 -0.057838611
2.1607573 -2.7806175 0.061467376 3 8 -0.057836305
0.84519821 -1.0880536 -0.31808078 3 1 -0.057834003
2.9386799 -3.78443 0.25110796 9 9 -0.057831697
1.0475711 -1.3490613 -0.33200768 3 2 -0.057829395
2.3200064 -2.9887795 0.33101749 13 10 -0.057827093
1.3296723 -1.7135854 -0.34353012 2 3 -0.057824787
1.6704978 -2.1535926 0.33465323 2 11 -0.057822485
1.7966278 -2.3170335 -0.36000207 1 4 -0.057820179
3.2674792 -4.215446 0.84474617 32 12 -0.057817876
1.8296795 -2.3605092 -0.2612929 1 5 -0.05781557
3.2803659 -4.2335973 1.0410539 19 13 -0.057813268
3.2844729 -4.2419558 1.2385805 25 14 -0.05780866
1.7931193 -2.3166807 -0.051135551 2 7 -0.057806354
3.2817307 -4.2414718 1.4369633 26 15 -0.057804052
0.72117078 -0.9344334 -0.31627688 5 0 -0.057783317
1.7931424 -2.3242443 0.051240265 11 8 -0.057781011
0.84377521 -1.0940837 -0.3189806 3 1 -0.057778709
2.9242325 -3.7930827 0.25100327 7 9 -0.057776403
1.0416569 -1.3511547 -0.33162606 3 2 -0.0577741
2.3180733 -3.0079067 0.33223769 13 10 -0.057771794
1.3212717 -1.7150869 -0.34290439 2 3 -0.057769492
1.6605476 -2.156265 0.33416575 2 11 -0.057767186
1.772787 -2.3028421 -0.35683349 3 4 -0.057764884
3.2672014 -4.2456121 0.84850067 33 12 -0.057762578
1.7874058 -2.3226702 -0.25641218 28 5 -0.057760276
3.2871146 -4.2730317 1.0479231 19 13 -0.05775797
3.2803354 -4.2673001 1.2426296 25 14 -0.057753362
1.7789294 -2.3149977 -0.050961025 41 7 -0.05775106
3.2927959 -4.2866063 1.4483514 26 15 -0.057748754
0.71085483 -0.92774433 -0.31317106 5 0 -0.057728019
1.7874503 -2.3336644 0.051310074 15 8 -0.057725716
0.85061347 -1.1109478 -0.32302973 4 1 -0.05772341
2.8976212 -3.7858212 0.24985188 7 9 -0.057721108
1.041707 -1.3610187 -0.33315253 3 2 -0.057718802
2.297874 -3.0033209 0.33084321 11 10 -0.0577165
1.3272774 -1.735379 -0.3460331 2 3 -0.057714194
1.6505995 -2.1588943 0.33367831 1 11 -0.057711892
1.7755864 -2.323211 -0.35902712 1 4 -0.057709586
3.2667525 -4.2758274 0.85225511 33 12 -0.057707284
1.7792873 -2.3288956 -0.25641218 6 5 -0.057704978
3.2972033 -4.3172455 1.0559371 22 13 -0.057702675
3.2890649 -4.3097076 1.2516277 25 14 -0.057698067
3.4810302 -4.5628934 -0.10017681 19 7 -0.057695761
3.2942135 -4.3195796 1.4555984 26 15 -0.057693459
0.70410323 -0.92560744 -0.31161815 5 0 -0.057672724
2.1775162 -2.8635793 0.062793761 11 8 -0.057670418
0.83965456 -1.1046017 -0.32033029 4 1 -0.057668116
2.8783469 -3.787962 0.24932852 7 9 -0.05766581
1.0310109 -1.3568308 -0.33124444 3 2 -0.057663508
2.2801454 -3.0018041 0.32979733 8 10 -0.057661202
1.3164334 -1.7337084 -0.34478158 2 3 -0.0576589
1.7366679 -2.2879753 0.35268989 1 11 -0.057656594
1.7770655 -2.3420458 -0.36097702 1 4 -0.057654291
3.2756822 -4.3186817 0.85851246 30 12 -0.057651985
3.4953365 -4.6082754 -0.50602621 2 5 -0.057649683
3.2951608 -4.3459368 1.0601349 21 13 -0.057647377
3.2987149 -4.3537807 1.2610756 22 14 -0.057642773
3.4988873 -4.6196513 -0.10115415 41 7 -0.057640467
3.2942748 -4.3510747 1.4623276 24 15 -0.057638165
0.70436066 -0.9326843 -0.31317106 5 0 -0.057617426
2.1590734 -2.8599908 0.062549427 11 8 -0.057615124
0.83696753 -1.1090815 -0.32078022 4 1 -0.057612818
2.8681757 -3.800674 0.24953786 7 9 -0.057610516
1.0262684 -1.3604214 -0.33124444 3 2 -0.05760821
2.2516594 -2.9858835 0.32718265 6 10 -0.057605907
1.3032392 -1.7288289 -0.34290439 2 3 -0.057603601
1.8099077 -2.4018285 0.36926416 1 11 -0.057601299
1.7692893 -2.3479261 -0.36097702 1 4 -0.057598993
3.2863023 -4.3626542 0.86508268 22 12 -0.057596691
3.5175812 -4.6713796 -0.51160419 3 5 -0.057594389
3.2988617 -4.3825097 1.0662408 21 13 -0.057592083
3.3065214 -4.3942814 1.2696238 25 14 -0.057587475
3.5015793 -4.6551995 -0.10167772 41 7 -0.057585172
3.2984042 -4.3866796 1.4706099 24 15 -0.057582866
0.70010483 -0.93346941 -0.31265342 5 0 -0.057562131
2.1483779 -2.8655348 0.062514521 11 8 -0.057559825
0.82861024 -1.1056132 -0.3189806 3 1 -0.057557523
2.8411829 -3.7909856 0.24828181 7 9 -0.057555217
1.0264598 -1.370102 -0.33277091 3 2 -0.057552915
2.2238307 -2.9694128 0.32456797 4 10 -0.057550613
1.2951312 -1.7299783 -0.34227866 2 3 -0.057548307
1.7947965 -2.3982811 0.3678017 2 11 -0.057546005
1.7519783 -2.3410656 -0.35902712 1 4 -0.057543699
3.2943001 -4.4035816 0.87102723 15 12 -0.057541396
3.5450268 -4.7404594 -0.51787943 3 5 -0.057539091
3.3031185 -4.4185839 1.0723467 19 13 -0.057536788
3.3047631 -4.4223933 1.2745727 22 14 -0.05753218
3.5040743 -4.6908169 -0.1022013 41 7 -0.057529874
3.3104241 -4.4331956 1.4825156 26 15 -0.057527572
0.70508331 -0.94663119 -0.31627688 5 0 -0.057506833
2.1400578 -2.8742473 0.062549427 16 8 -0.057504531
0.82493937 -1.108355 -0.3189806 3 1 -0.057502229
2.8195868 -3.7896633 0.24754909 6 9 -0.057499923
1.0193279 -1.3705261 -0.33200768 3 2 -0.057497621
2.2258615 -2.9927578 0.32631108 4 10 -0.057495315
1.2988161 -1.7469455 -0.34478158 2 3 -0.057493012
1.7856495 -2.4026263 0.36755794 8 11 -0.057490706
1.7580017 -2.3662884 -0.36195198 1 4 -0.057488404
3.5284579 -4.7528052 -0.51787943 3 5 -0.057483796
3.3099046 -4.4600415 1.0795974 18 13 -0.05748149
3.3113661 -4.4636393 1.2831209 25 14 -0.057476882
3.5007815 -4.7206879 -0.10258525 40 7 -0.05747458
3.3167884 -4.4742107 1.4923507 24 15 -0.057472274
0.69242263 -0.93678081 -0.31213579 5 0 -0.057451539
2.1259439 -2.8772469 0.062444709 20 8 -0.057449237
0.82087153 -1.111371 -0.3189806 4 1 -0.057446931
1.0073025 -1.3647753 -0.32971796 3 2 -0.057442322
2.2231596 -3.0121171 0.32753128 4 10 -0.05744002
1.2947502 -1.7548735 -0.34540737 2 3 -0.057437714
1.7850795 -2.4203382 0.36926416 10 11 -0.057435412
1.7469611 -2.3695204 -0.3614645 1 4 -0.057433106
1.6747142 -2.2723572 0.44708973 7 12 -0.057430804
3.5370126 -4.8009953 -0.52171427 3 5 -0.057428498
3.3179836 -4.5053401 1.0876113 19 13 -0.057426196
3.3157797 -4.503994 1.291219 22 14 -0.057421587
3.5047905 -4.7624774 -0.10321353 37 7 -0.057419281
3.3141046 -4.5050116 1.4985623 24 15 -0.057416979
0.68669927 -0.9361968 -0.31110048 5 0 -0.057396244
2.1082892 -2.8753436 0.062235285 22 8 -0.057393938
0.8214007 -1.1206592 -0.32078022 3 1 -0.057391636
2.281146 -3.1122296 0.20222615 1 9 -0.05738933
1.0071738 -1.3746178 -0.33124444 3 2 -0.057387028
2.2215233 -3.0331039 0.32892576 4 10 -0.057384722
1.2789739 -1.7468563 -0.34290439 2 3 -0.05738242
1.7738516 -2.4236608 0.36877668 9 11 -0.057380114
1.7574378 -2.4012341 -0.36536431 1 4 -0.057377812
1.6399453 -2.2415214 0.43989375 20 12 -0.057375506
3.5696313 -4.880856 -0.52903533 3 5 -0.057373203
3.3184583 -4.5390825 1.0929539 19 13 -0.057370897
3.320735 -4.5438614 1.2993174 23 14 -0.057366289
3.5152767 -4.811821 -0.10401635 40 7 -0.057363987
3.3165882 -4.5415139 1.5068446 22 15 -0.057361685
0.691553 -0.94939959 -0.31472397 5 0 -0.057340946
2.0963886 -2.879086 0.062165473 17 8 -0.057338644
0.81768 -1.1233771 -0.32078022 3 1 -0.057336338
2.273164 -3.1230068 0.20243551 2 9 -0.057334036
1.0026098 -1.3779501 -0.33124444 3 2 -0.05733173
2.2208283 -3.0533445 0.33032027 4 10 -0.057329427
1.2731742 -1.7510881 -0.34290439 2 3 -0.057327121
1.7693058 -2.4343469 0.36950788 5 11 -0.057324819
1.7494653 -2.4070487 -0.36536431 1 4 -0.057322513
1.610442 -2.2165833 0.43394926 41 12 -0.057320211
3.317229 -4.5691266 1.0975335 15 13 -0.057315603
3.3319747 -4.5911231 1.3096651 23 14 -0.057310995
3.3241928 -4.583765 1.5171974 18 15 -0.057306387
0.68726861 -0.9501223 -0.31420633 5 0 -0.057285652
2.0938599 -2.8957446 0.062374901 13 8 -0.057283346
0.80253434 -1.1102887 -0.31628117 4 1 -0.057281043
2.2505515 -3.1147337 0.20138879 4 9 -0.057278737
1.0092893 -1.3973567 -0.3350606 3 2 -0.057276435
2.2258565 -3.0816891 0.33258632 4 10 -0.057274129
1.2673603 -1.7553004 -0.34290439 2 3 -0.057271827
1.7530911 -2.4289334 0.3678017 6 11 -0.057269525
1.7294378 -2.3970428 -0.36292693 1 4 -0.057267219
1.6246498 -2.2526321 0.43989375 45 12 -0.057264917
3.3276601 -4.617311 1.1063106 13 13 -0.057260308
3.3330152 -4.6264429 1.3164135 23 14 -0.0572557
3.0383723 -4.2190118 -0.090752512 67 7 -0.057253394
3.3284883 -4.6235619 1.5265148 22 15 -0.057251092
0.68716103 -0.9573431 -0.31575924 5 0 -0.057230353
2.0855639 -2.9066494 0.062444709 11 8 -0.057228051
0.81436056 -1.1353922 -0.3225798 3 1 -0.057225749
2.2495942 -3.1375699 0.20233083 6 9 -0.057223443
0.99729866 -1.3914721 -0.33277091 3 2 -0.057221141
2.2354383 -3.1189756 0.33572391 4 10 -0.057218835
1.2609184 -1.7599336 -0.34290439 2 3 -0.057216533
1.7499563 -2.4434118 0.3690204 7 11 -0.057214227
1.7206407 -2.4033654 -0.36292693 1 4 -0.057211924
1.5876417 -2.2184124 0.43207204 38 12 -0.057209618
2.3022709 -3.2181504 -0.34618258 11 5 -0.057207316
3.3369811 -4.6662059 1.1150879 15 13 -0.05720501
3.3341687 -4.6639934 1.323612 23 14 -0.057200402
3.5251527 -4.93297 -0.10583139 30 7 -0.0571981
3.3362246 -4.6703138 1.5379028 22 15 -0.057195794
0.68252695 -0.95828176 -0.31524161 5 0 -0.057175059
2.0760562 -2.9159026 0.062479615 8 8 -0.057172757
0.79663402 -1.1193172 -0.31718099 3 1 -0.057170451
2.2438684 -3.1539311 0.20285419 11 9 -0.057168148
0.98081374 -1.379119 -0.32895473 3 2 -0.057165843
2.2343845 -3.1417608 0.3372927 4 10 -0.05716354
1.2613267 -1.7742032 -0.34478158 2 3 -0.057161234
1.7386889 -2.446573 0.36853293 6 11 -0.057158932
1.7118202 -2.4096558 -0.36292693 1 4 -0.057156626
1.5749252 -2.2177739 0.43082058 40 12 -0.057154324
2.2893071 -3.2249427 -0.3460083 5 5 -0.057152018
3.3380349 -4.7040229 1.1211938 16 13 -0.057149716
3.3373466 -4.704792 1.3317102 23 14 -0.057145108
3.3369591 -4.707727 1.5461851 22 15 -0.057140499
0.67789501 -0.95919937 -0.31472397 5 0 -0.057119764
2.0618937 -2.9185922 0.062374901 8 8 -0.057117458
0.80376768 -1.1381476 -0.32168001 4 1 -0.057115156
2.2334456 -3.1637657 0.20295887 12 9 -0.05711285
0.97688431 -1.3843088 -0.32933635 3 2 -0.057110548
2.2251515 -3.1531849 0.33764133 4 10 -0.057108242
1.2525382 -1.7755859 -0.34415585 2 3 -0.05710594
1.7400062 -2.46753 0.37072656 6 11 -0.057103634
1.7121265 -2.4288936 -0.36487687 1 4 -0.057101332
1.5622346 -2.2170722 0.42956907 40 12 -0.057099026
3.3399863 -4.7435145 1.1276813 16 13 -0.057094418
3.3436348 -4.7504578 1.3411582 21 14 -0.057089809
2.251904 -3.200572 -0.068308719 22 7 -0.057087507
3.3419096 -4.7515292 1.5565379 22 15 -0.057085201
0.67265826 -0.95816195 -0.3136887 5 0 -0.057061195
2.0687959 -2.9479716 0.062863566 8 8 -0.057058893
0.79571152 -1.1342856 -0.3198804 3 1 -0.057056587
2.2355189 -3.186729 0.20400558 6 9 -0.057054285
0.98517185 -1.4048827 -0.33353412 3 2 -0.057051979
1.2469537 -1.7795122 -0.34415585 2 3 -0.057047371
1.7140236 -2.44697 0.36682677 6 11 -0.057045069
1.6953788 -2.4212518 -0.36292693 1 4 -0.057042763
1.5579157 -2.2249343 0.43019485 44 12 -0.05704046
3.3461561 -4.7823582 1.1345503 18 13 -0.057035852
3.3476775 -4.7880893 1.3488065 21 14 -0.057031244
3.3455033 -4.7867594 1.5648201 20 15 -0.057026636
0.67262298 -0.96525908 -0.31524161 5 0 -0.057005901
2.0475762 -2.9384093 0.062514521 5 8 -0.057003595
0.78749025 -1.1305219 -0.31808078 3 1 -0.057001293
0.97465396 -1.4002564 -0.33162606 3 2 -0.056996685
1.6966689 -2.4384611 0.25989842 3 10 -0.056994379
1.2342765 -1.7739085 -0.34227866 2 3 -0.056992076
1.7081665 -2.4558997 0.36731425 5 11 -0.05698977
1.5218927 -2.1889009 -0.32734108 2 4 -0.056987468
1.5546492 -2.2368469 0.43144631 47 12 -0.056985162
1.5198991 -2.1876631 -0.23305444 1 5 -0.05698286
3.357163 -4.8321242 1.1437092 18 13 -0.056980554
3.3495622 -4.8247771 1.356005 22 14 -0.056975946
3.3574042 -4.8396783 1.5782787 22 15 -0.056971338
0.6705175 -0.96907288 -0.31575924 5 0 -0.056950603
1.4924326 -2.1577592 0.045795113 1 8 -0.0569483
0.78353924 -1.1332638 -0.31808078 3 1 -0.056945994
0.96554035 -1.3970205 -0.33009958 3 2 -0.056941386
1.5957074 -2.3096583 0.24560487 4 10 -0.056939084
1.2460378 -1.8042127 -0.34728456 2 3 -0.056936778
1.6352993 -2.3687317 0.35342112 3 11 -0.056934476
1.4759072 -2.1386507 -0.31905395 11 4 -0.05693217
1.543857 -2.2371128 0.43050769 42 12 -0.056929868
1.4809579 -2.1467705 -0.22817372 9 5 -0.056927562
3.3592227 -4.8712888 1.1501967 17 13 -0.05692526
3.3570266 -4.8717422 1.3659029 24 14 -0.056920651
1.4637018 -2.1241353 -0.045027211 8 7 -0.056918349
3.3610625 -4.8794217 1.5875961 24 15 -0.056916043
0.66494346 -0.96822274 -0.31472397 5 0 -0.056895308
1.4648916 -2.1330254 0.045166828 11 8 -0.056893002
0.78418863 -1.1422822 -0.3198804 3 1 -0.0568907
1.4612331 -2.1292903 0.13534079 10 9 -0.056888394
0.96287912 -1.4036204 -0.33086282 3 2 -0.056886092
1.4659432 -2.1377528 0.22677925 10 10 -0.056883786
1.2769144 -1.8620961 -0.35760921 3 3 -0.056881484
1.4635694 -2.1350899 0.31783527 10 11 -0.056879178
1.4688071 -2.1435332 -0.31905395 12 4 -0.056876875
1.5360385 -2.2424881 0.43050769 40 12 -0.056874573
1.4678272 -2.1437075 -0.22730216 10 5 -0.056872267
3.3685615 -4.9196596 1.1589739 14 13 -0.056869965
3.3606601 -4.9117975 1.374001 22 14 -0.056865357
1.4517627 -2.1226292 -0.044887587 11 7 -0.056863051
3.3636353 -4.9198298 1.5969136 22 15 -0.056860749
0.66064078 -0.96882623 -0.31420633 5 0 -0.05684001
1.4540584 -2.1331687 0.045062114 13 8 -0.056837708
0.78458583 -1.1514544 -0.32168001 3 1 -0.056835402
1.4492941 -2.127775 0.1349221 11 9 -0.0568331
0.96042961 -1.4100506 -0.33162606 3 2 -0.056830794
1.4599674 -2.1442492 0.22695355 11 10 -0.056828491
1.2348398 -1.8142855 -0.34759742 3 3 -0.056826189
1.4594575 -2.1451097 0.31856647 11 11 -0.056823883
1.4557339 -2.14044 -0.31783527 12 4 -0.056821581
1.5304229 -2.2511034 0.43113342 37 12 -0.056819275
1.4580957 -2.1455224 -0.22695355 10 5 -0.056816973
3.3668175 -4.9541206 1.1643165 16 13 -0.056814667
3.3708639 -4.9638023 1.3852487 22 14 -0.056810059
1.4432214 -2.1260293 -0.044852685 12 7 -0.056807756
3.3703058 -4.9667096 1.6083016 20 15 -0.05680545
0.65708542 -0.97124112 -0.31420633 5 0 -0.056784716
1.4376391 -2.1249814 0.044782877 14 8 -0.05678241
0.77619493 -1.1477292 -0.3198804 3 1 -0.056780107
1.4407396 -2.1311667 0.13481744 13 9 -0.056777805
0.96185076 -1.4233214 -0.33391577 3 2 -0.056775499
1.4454066 -2.1396797 0.22590767 11 10 -0.056773197
1.2292871 -1.8204362 -0.34791031 2 3 -0.056770891
1.4464062 -2.1419654 0.31734779 12 11 -0.056768589
1.4438112 -2.138927 -0.31686032 7 4 -0.056766283
1.4695204 -2.1778333 0.41611573 12 12 -0.056763981
1.4494833 -2.1489472 -0.22677925 13 5 -0.056761675
3.3683927 -4.9957285 1.1711857 17 13 -0.056759372
3.3744256 -5.0084467 1.3942467 22 14 -0.056754764
1.4302046 -2.1227624 -0.044678163 37 7 -0.056752458
3.3799274 -5.0185018 1.6212426 16 15 -0.056750156
0.65584493 -0.97673655 -0.31524161 5 0 -0.056729421
1.4409856 -2.1468396 0.045131925 9 8 -0.056727115
0.77632618 -1.1570393 -0.32168001 4 1 -0.056724813
1.4310658 -2.1328657 0.13460809 9 9 -0.056722507
0.95687658 -1.4266703 -0.33391577 3 2 -0.056720205
1.4334909 -2.1380928 0.22521043 5 10 -0.056717899
1.2053292 -1.7984613 -0.34290439 2 3 -0.056715596
1.4352313 -2.1423047 0.31661656 9 11 -0.056713291
1.4403802 -2.1508021 -0.31783527 3 4 -0.056710988
1.5201658 -2.2699394 0.43269777 32 12 -0.056708682
1.4408649 -2.1523383 -0.22660492 3 5 -0.05670638
3.3771391 -5.0466146 1.1803445 16 13 -0.056704074
3.3742542 -5.046114 1.4014452 22 14 -0.056699466
1.4250093 -2.1310663 -0.044747971 3 7 -0.056697164
3.3827868 -5.0607853 1.6310778 18 15 -0.056694858
0.65243149 -0.97901988 -0.31524161 5 0 -0.056674123
1.4272046 -2.1416221 0.044922493 3 8 -0.056671821
0.7681635 -1.1531199 -0.3198804 4 1 -0.056669515
1.4302541 -2.1478224 0.13523613 2 9 -0.056667212
0.9453634 -1.4201958 -0.33162606 3 2 -0.056664906
1.4447823 -2.1712818 0.22817372 3 10 -0.056662604
1.2070186 -1.8139603 -0.34509447 3 3 -0.056660298
1.441312 -2.1668866 0.31954145 3 11 -0.056657996
1.6036022 -2.4117885 -0.35561478 1 4 -0.05665569
1.5264478 -2.2966189 0.43676507 15 12 -0.056653388
1.8512177 -2.7863066 -0.292669 3 5 -0.056651082
3.3842871 -5.093761 1.1887401 16 13 -0.05664878
3.3876815 -5.1027341 1.4140424 22 14 -0.056644171
1.8432723 -2.7775021 -0.058186322 12 7 -0.056641869
3.3907313 -5.1111984 1.643501 20 15 -0.056639563
0.64491749 -0.97473353 -0.31317106 5 0 -0.056618828
1.8510417 -2.7987411 0.058570277 12 8 -0.056616522
0.77380621 -1.1704247 -0.32392952 4 1 -0.05661422
2.2706707 -3.4358182 0.2158335 1 9 -0.056611914
0.94064862 -1.423323 -0.33162606 3 2 -0.056609612
2.1964464 -3.3247685 0.34862295 6 10 -0.056607306
1.2039452 -1.8231077 -0.3460331 2 3 -0.056605004
1.6448087 -2.4916434 0.36658302 4 11 -0.056602698
1.697947 -2.573117 -0.37852621 1 4 -0.056600396
1.5488772 -2.3481038 0.44552541 15 12 -0.05659809
1.8414806 -2.7927516 -0.292669 37 5 -0.056595787
3.3902619 -5.141602 1.1971357 14 13 -0.056593485
3.3902204 -5.1454468 1.4225905 22 14 -0.056588877
1.8379658 -2.7905993 -0.058325943 9 7 -0.056586571
3.3898664 -5.1488199 1.6517832 20 15 -0.056584269
0.63604027 -0.9690156 -0.31058288 5 0 -0.05656353
0.76437068 -1.1649721 -0.32168001 4 1 -0.056558922
2.5577011 -3.8996575 0.24440894 20 9 -0.05655662
0.9397313 -1.4333284 -0.33315253 3 2 -0.056554314
2.1831536 -3.3311305 0.34844866 5 10 -0.056552012
1.1864299 -1.8109847 -0.34290439 2 3 -0.056549706
1.6513306 -2.5206165 0.36999539 4 11 -0.056547403
1.6193522 -2.4727452 -0.36292693 1 4 -0.056545101
1.5688018 -2.3964672 0.45366001 13 12 -0.056542795
3.3885899 -5.1802807 1.2032416 14 13 -0.056538187
3.393729 -5.1920924 1.4320384 22 14 -0.056533579
3.7220721 -5.694427 -0.11874618 31 7 -0.056531277
3.397233 -5.1994352 1.6642065 18 15 -0.056528971
0.64108926 -0.98417968 -0.31472397 4 0 -0.056508236
2.5631361 -3.9363463 0.081991412 16 8 -0.05650593
0.76115882 -1.1693989 -0.32212991 4 1 -0.056503627
2.5629976 -3.9391396 0.24629304 20 9 -0.056501321
0.93043959 -1.4300176 -0.33162606 3 2 -0.056499019
2.1758575 -3.3454115 0.34914589 6 10 -0.056496717
1.1693341 -1.7985538 -0.33977571 3 3 -0.056494411
1.6323456 -2.5116718 0.3678017 4 11 -0.056492109
1.6383959 -2.5219445 -0.36926416 1 4 -0.056489803
1.5718421 -2.4204249 0.45710155 10 12 -0.056487501
3.3940041 -5.2283053 1.2116373 14 13 -0.056482892
3.4010367 -5.2431455 1.4428362 19 14 -0.056478284
3.7283745 -5.7499766 -0.11961879 31 7 -0.056475978
3.4002192 -5.2458949 1.6750768 16 15 -0.056473676
0.63660115 -0.98478907 -0.31420633 4 0 -0.056452941
2.5624034 -3.9654233 0.082410261 18 8 -0.056450635
0.75072801 -1.1622272 -0.3194305 4 1 -0.056448333
2.5633159 -3.9698751 0.24765378 20 9 -0.056446027
0.92970198 -1.439854 -0.33315253 3 2 -0.056443725
2.1652474 -3.3546605 0.34932023 6 10 -0.056441419
1.1609068 -1.7993048 -0.33914998 4 3 -0.056439117
1.6214163 -2.5140178 0.36731425 3 11 -0.056436811
1.6145239 -2.5042903 -0.36585179 1 4 -0.056434508
1.5687343 -2.4341989 0.45866591 8 12 -0.056432202
3.4033768 -5.2830319 1.2215593 14 13 -0.056427594
3.40381 -5.2877574 1.4518342 22 14 -0.056422986
3.7353327 -5.804997 -0.12049142 31 7 -0.056420684
3.4080141 -5.2983508 1.6880178 18 15 -0.056418378
0.63628894 -0.99188328 -0.31575924 5 0 -0.056397643
2.5722935 -4.0113773 0.08317817 18 8 -0.056395341
0.74561489 -1.1631999 -0.3189806 4 1 -0.056393035
2.5619929 -3.9968491 0.24880517 21 9 -0.056390733
0.91831523 -1.4331725 -0.33086282 3 2 -0.056388427
2.1567478 -3.3672318 0.34984317 7 10 -0.056386124
1.1780522 -1.8399453 -0.3460331 3 3 -0.056383818
1.5869488 -2.4795349 0.3614645 2 11 -0.056381516
1.5929346 -2.489845 -0.36292693 1 4 -0.05637921
1.5542659 -2.4294038 0.45678869 8 12 -0.056376908
3.4166386 -5.3445034 1.2330078 14 13 -0.0563723
3.4073617 -5.3340945 1.461282 22 14 -0.056367692
3.7440505 -5.8611679 -0.12139894 31 7 -0.056365386
3.4112189 -5.3421879 1.6983706 18 15 -0.056363083
0.62763572 -0.98594999 -0.31317106 4 0 -0.056342348
2.5740108 -4.0435019 0.083666839 20 8 -0.056340043
0.74698442 -1.1738867 -0.32123011 4 1 -0.05633774
2.5662491 -4.0344167 0.25058457 21 9 -0.056335434
0.91330689 -1.4363692 -0.33086282 3 2 -0.056333132
2.1471183 -3.3781018 0.35019177 10 10 -0.056330826
1.158169 -1.8221692 -0.34196579 3 3 -0.056328524
1.4999413 -2.360796 0.34342784 2 11 -0.056326218
1.6059544 -2.5286276 -0.3678017 1 4 -0.056323916
1.5394241 -2.4248083 0.4549115 6 12 -0.05632161
3.4220405 -5.392272 1.2414035 14 13 -0.056317002
3.4167881 -5.3881536 1.4729795 22 14 -0.056312397
3.7471225 -5.9113579 -0.12216685 31 7 -0.056310091
3.4194343 -5.3964906 1.7118292 18 15 -0.056307789
0.6253947 -0.98965889 -0.3136887 4 0 -0.05628705
2.5716286 -4.0710592 0.084050797 22 8 -0.056284748
0.74392265 -1.1781347 -0.32168001 4 1 -0.056282442
2.5645862 -4.061481 0.25173599 21 9 -0.05628014
0.91273057 -1.4460307 -0.3323893 3 2 -0.056277834
2.1242096 -3.3666685 0.34827435 5 10 -0.056275532
1.1623393 -1.8429091 -0.34509447 3 3 -0.056273226
1.4705176 -2.332433 0.33855307 2 11 -0.056270923
1.5759501 -2.5006301 -0.36292693 1 4 -0.056268618
1.533481 -2.4332423 0.45553723 6 12 -0.056266315
3.4220281 -5.4340878 1.2482725 14 13 -0.056261707
3.4239063 -5.4412818 1.4842271 22 14 -0.056257099
3.7530589 -5.9643717 -0.12300456 29 7 -0.056254797
3.423121 -5.4421401 1.7226996 16 15 -0.056252491
0.61988384 -0.98856258 -0.31265342 4 0 -0.056231756
2.5751116 -4.1066713 0.084609263 22 8 -0.05622945
0.74518675 -1.188851 -0.32392952 4 1 -0.056227148
2.5705416 -4.1025653 0.25372472 20 9 -0.056224842
0.90976143 -1.4525356 -0.33315253 3 2 -0.056222539
1.5510296 -2.4773524 0.25571495 3 10 -0.056220237
1.1509805 -1.8383816 -0.34353012 2 3 -0.056217931
1.4796246 -2.3642204 0.34245288 2 11 -0.056215629
1.5781775 -2.522671 -0.36536431 1 4 -0.056213323
1.5239304 -2.4369054 0.45522434 4 12 -0.056211021
3.4206393 -5.4720416 1.2543784 14 13 -0.056206413
3.4347501 -5.4988842 1.4968243 19 14 -0.056201804
3.7629297 -6.0266261 -0.12401681 21 7 -0.056199498
3.4358122 -5.5048599 1.7387464 24 15 -0.056197196
0.62578994 -1.0053736 -0.31731215 5 0 -0.056176458
2.5723815 -4.1343117 0.084993221 20 8 -0.056174155
0.729711 -1.1732423 -0.3189806 4 1 -0.056171853
2.5635877 -4.1233864 0.25445744 20 9 -0.056169547
0.90286648 -1.4522099 -0.3323893 3 2 -0.056167245
1.5470124 -2.4892509 0.25641218 3 10 -0.056164939
1.1455988 -1.8440663 -0.34384301 3 3 -0.056162637
1.4724103 -2.3710568 0.34269661 3 11 -0.056160331
1.5588927 -2.5112991 -0.36292693 1 4 -0.056158029
1.5258298 -2.4589949 0.45835301 4 12 -0.056155723
3.4387712 -5.5440102 1.2681167 14 13 -0.056151114
3.4319599 -5.5373425 1.5040227 19 14 -0.056146506
3.4715011 -5.6055093 1.7666988 30 15 -0.056141898
0.62024641 -1.0042646 -0.31627688 5 0 -0.056121163
2.5705402 -4.1636839 0.085412078 18 8 -0.056118861
0.72765797 -1.1790991 -0.3198804 4 1 -0.056116555
2.559665 -4.1493087 0.25550416 20 9 -0.056114253
0.8957302 -1.4520109 -0.33162606 3 2 -0.056111947
2.1061618 -3.415498 0.35106334 9 10 -0.056109644
1.131899 -1.8362827 -0.3416529 2 3 -0.056107339
1.4693315 -2.3846323 0.34391531 3 11 -0.056105036
1.5626094 -2.5370076 -0.36585179 1 4 -0.05610273
3.4280245 -5.5678182 1.0355963 5 12 -0.056100428
3.437921 -5.5860753 1.2749858 13 13 -0.05609582
3.4371097 -5.589128 1.5148203 19 14 -0.056091212
2.5960526 -4.2231259 -0.086529031 40 7 -0.056088906
3.6066573 -5.869422 1.8458976 13 15 -0.056086604
0.61269951 -0.9998349 -0.31420633 5 0 -0.056065869
2.5716586 -4.1982093 0.085935652 19 8 -0.056063563
0.72455531 -1.1832938 -0.32033029 4 1 -0.05606126
2.5670614 -4.1939912 0.25770226 20 9 -0.056058954
0.88040715 -1.4383838 -0.32780987 3 2 -0.056056652
2.0859082 -3.4092321 0.34966883 9 10 -0.056054346
1.1378502 -1.8604451 -0.34540737 2 3 -0.056052044
1.4817073 -2.42362 0.34879011 3 11 -0.056049738
1.5516738 -2.5390592 -0.36536431 1 4 -0.056047436
3.4301934 -5.61515 1.0421665 6 12 -0.05604513
3.4470499 -5.644958 1.2856711 14 13 -0.056040522
3.4470153 -5.649334 1.5278676 19 14 -0.056035914
3.7922869 -6.2176418 -0.12712333 30 7 -0.056033611
3.8134248 -6.2547536 1.9628838 30 15 -0.056031309
0.60318398 -0.99206328 -0.31110048 5 0 -0.05601057
2.5569885 -4.2071609 0.085935652 8 8 -0.056008268
0.72244424 -1.1891466 -0.32123011 4 1 -0.056005962
2.5700305 -4.2319474 0.2594817 10 9 -0.05600366
0.88557166 -1.4582288 -0.33162606 3 2 -0.056001354
2.0698593 -3.4096801 0.34897158 10 10 -0.055999052
1.1252004 -1.8542727 -0.34353012 2 3 -0.055996746
1.4835334 -2.44575 0.35122749 1 11 -0.055994444
1.5242754 -2.5139062 -0.36097702 1 4 -0.055992138
3.4474318 -5.6879044 1.0534298 6 12 -0.055989835
3.4507222 -5.6955757 1.2944483 13 13 -0.055985227
3.4514954 -5.7013412 1.5386652 19 14 -0.055980619
3.7974777 -6.2753224 -0.12803085 33 7 -0.055978317
3.8145659 -6.3060451 1.9747895 28 15 -0.055976011
0.60670245 -1.0057422 -0.31472397 4 0 -0.055955276
3.802072 -6.3052545 0.12851952 21 8 -0.05595297
0.71929485 -1.1933303 -0.32168001 4 1 -0.055950668
3.8096719 -6.3228474 0.3868674 37 9 -0.055948362
0.88554209 -1.4697191 -0.33353412 3 2 -0.05594606
2.0600007 -3.4202983 0.34932023 9 10 -0.055943754
1.1309475 -1.8784971 -0.34728456 2 3 -0.055941451
1.4872705 -2.4713235 0.35415235 2 11 -0.055939149
1.5359569 -2.553232 -0.36585179 1 4 -0.055936843
3.451988 -5.7405334 1.0609387 8 12 -0.055934541
3.454083 -5.7462873 1.3032255 13 13 -0.055929933
3.4626777 -5.7651424 1.5526122 19 14 -0.055925325
3.8002532 -6.3296866 -0.12886856 33 7 -0.055923019
3.8303058 -6.3822665 1.9944596 30 15 -0.055920716
0.60499573 -1.0112746 -0.31575924 4 0 -0.055899978
3.803652 -6.3579564 0.12932234 14 8 -0.055897675
0.71512496 -1.1958338 -0.32168001 4 1 -0.055895373
3.8049989 -6.3652506 0.38864684 37 9 -0.055893067
0.8781352 -1.4695843 -0.33277091 3 2 -0.055890765
2.0433638 -3.4209833 0.34862295 10 10 -0.055888459
1.1119028 -1.8622769 -0.34353012 2 3 -0.055886157
1.4877934 -2.4918394 0.35634598 3 11 -0.055883851
1.514827 -2.5381231 -0.36292693 1 4 -0.055881549
3.4582422 -5.7966547 1.0690732 8 12 -0.055879243
3.4581306 -5.8010669 1.312766 13 13 -0.055874635
3.458478 -5.8062568 1.5602605 19 14 -0.055870026
3.7945089 -6.3704019 -0.12942705 34 7 -0.055867724
3.8297474 -6.432116 2.0058477 30 15 -0.055865418
0.60047609 -1.011719 -0.31524161 5 0 -0.055844683
1.8141469 -3.0578029 0.062060758 3 8 -0.055842381
0.71471334 -1.2051514 -0.32347962 4 1 -0.055840075
3.7337742 -6.2984052 0.38372725 47 9 -0.055837773
0.87400115 -1.4743295 -0.33315253 3 2 -0.055835467
2.0324259 -3.4298096 0.34879729 10 10 -0.055833165
1.107409 -1.8695462 -0.34415585 2 3 -0.055830859
1.4917984 -2.5194814 0.35951459 3 11 -0.055828556
1.5055141 -2.5436583 -0.36292693 1 4 -0.05582625
3.4530673 -5.8364921 1.0740792 6 12 -0.055823948
3.7880704 -6.4052758 -0.65105337 5 5 -0.055821642
3.4678414 -5.8637986 1.3242146 13 13 -0.05581934
3.4679315 -5.8686252 1.5737575 19 14 -0.055814732
3.7040102 -6.2706308 -0.12712333 100 7 -0.055812426
3.7295327 -6.3163557 1.9654719 71 15 -0.055810124
0.59480393 -1.0105834 -0.31420633 5 0 -0.055789389
1.8349059 -3.1175406 0.063142806 5 8 -0.055787083
0.70556146 -1.1992408 -0.32123011 4 1 -0.055784781
3.6874673 -6.2700815 0.38121516 94 9 -0.055782475
0.86063206 -1.4639833 -0.33009958 3 2 -0.055780172
2.0147941 -3.4286468 0.34792572 9 10 -0.055777866
1.1005492 -1.8735925 -0.34415585 2 3 -0.055775564
1.4940542 -2.5435016 0.36219573 3 11 -0.055773258
1.4966259 -2.548898 -0.36292693 1 4 -0.055770956
1.5898484 -2.7087479 0.49746165 6 12 -0.05576865
3.7031786 -6.3119149 -0.64024603 5 5 -0.055766348
3.4741352 -5.9238877 1.3348998 13 13 -0.055764042
3.473 -5.926692 1.585905 19 14 -0.055759434
3.6659236 -6.2559171 -0.12656485 26 7 -0.055757131
3.6986742 -6.3143325 1.9608132 78 15 -0.055754825
0.5935756 -1.015783 -0.31524161 5 0 -0.055743694
1.8467472 -3.1615956 0.063910715 11 8 -0.055741392
0.70256329 -1.2032568 -0.32168001 4 1 -0.055739086
3.6616204 -6.2736502 0.38069177 94 9 -0.055736784
0.85602868 -1.4666797 -0.33009958 3 2 -0.055734478
1.9949768 -3.4194713 0.34635693 9 10 -0.055732176
1.0847063 -1.8599768 -0.34102717 2 3 -0.05572987
1.5046067 -2.5810266 0.36682677 7 11 -0.055727568
1.4801695 -2.5401258 -0.36097702 1 4 -0.055725262
3.4699318 -5.9571562 1.0919127 8 12 -0.055722959
3.4772403 -5.9720984 1.3432955 14 13 -0.055718351
3.4827824 -5.9864221 1.5989521 19 14 -0.055713743
1.8457005 -3.1737785 -0.064085238 4 7 -0.055711437
3.666064 -6.3065219 1.9546015 69 15 -0.055709135
0.59002626 -1.0178486 -0.31524161 5 0 -0.0556884
1.8316895 -3.1611021 0.063771099 11 8 -0.055686094
0.69445193 -1.1989567 -0.3198804 4 1 -0.055683792
3.6376972 -6.282937 0.38048244 94 9 -0.055681486
0.85975701 -1.4849502 -0.33353412 3 2 -0.055679183
1.9920104 -3.4419339 0.34792572 8 10 -0.055676877
1.0801857 -1.8671713 -0.3416529 2 3 -0.055674575
1.499563 -2.5931365 0.3678017 7 11 -0.055672269
1.4871891 -2.5727749 -0.36487687 1 4 -0.055669967
3.4758003 -6.0154128 1.1003602 9 12 -0.055667661
1.8809559 -3.2552867 -0.32892576 1 5 -0.055665359
3.479939 -6.025001 1.3524542 14 13 -0.055663053
3.4910865 -6.0491776 1.6124492 19 14 -0.055658445
1.8416052 -3.1923268 -0.064329572 46 7 -0.055656143
3.6469233 -6.3243012 1.9561545 39 15 -0.055653837
0.58261776 -1.0132031 -0.31317106 5 0 -0.055633102
1.8296131 -3.1830797 0.064085238 12 8 -0.055630799
0.69414586 -1.2081324 -0.32168001 4 1 -0.055628493
3.6117647 -6.2886686 0.38006377 84 9 -0.055626191
0.8614127 -1.4998593 -0.33620548 3 2 -0.055623885
1.9799834 -3.4488664 0.34792572 9 10 -0.055621583
1.0775943 -1.8777839 -0.34290439 2 3 -0.055619277
1.4885266 -2.5949116 0.36731425 7 11 -0.055616975
1.4781992 -2.5779505 -0.36487687 1 4 -0.055614669
3.4763923 -6.0652122 1.1072433 5 12 -0.055612367
1.845803 -3.2203465 -0.32474229 26 5 -0.055610061
3.4910939 -6.0933266 1.3650476 14 13 -0.055607758
3.4922183 -6.1002245 1.6227969 19 14 -0.05560315
3.5874059 -6.2690358 -0.12607619 71 7 -0.055600848
3.6200285 -6.3286076 1.9535662 76 15 -0.055598542
0.58290607 -1.021943 -0.31524161 5 0 -0.055577807
3.584487 -6.2868233 0.12632053 57 8 -0.055575501
0.68992442 -1.210548 -0.32168001 4 1 -0.055573199
3.582871 -6.2890892 0.37933105 99 9 -0.055570893
0.84548211 -1.4840927 -0.33200768 3 2 -0.055568591
1.9649748 -3.4505627 0.34740278 8 10 -0.055566285
1.0671239 -1.8746669 -0.3416529 2 3 -0.055563983
1.4922223 -2.6225209 0.37048283 8 11 -0.055561677
1.4554516 -2.5589373 -0.3614645 1 4 -0.055559374
3.4893706 -6.137414 1.1181936 8 12 -0.055557072
3.5008438 -6.1600952 1.3772594 14 13 -0.055552464
3.4968843 -6.1581316 1.6349442 19 14 -0.055547856
3.5625393 -6.2763028 -0.12597147 100 7 -0.05554555
3.5969622 -6.3395257 1.9530486 84 15 -0.055543248
0.57838392 -1.0222901 -0.31472397 5 0 -0.055522509
3.5654728 -6.3045192 0.12642524 94 8 -0.055520207
0.68185866 -1.2061632 -0.3198804 4 1 -0.055517901
3.5570815 -6.292243 0.37880769 99 9 -0.055515599
0.83353549 -1.4750704 -0.32933635 3 2 -0.055513293
1.9450793 -3.4435227 0.3460083 9 10 -0.05551099
1.0586314 -1.8749403 -0.34102717 2 3 -0.055508688
1.4908645 -2.6415439 0.37243277 8 11 -0.055506382
1.4469581 -2.5637496 -0.3614645 1 4 -0.05550408
3.4981174 -6.2005653 1.1275797 10 12 -0.055501774
3.5770655 -6.343091 -0.63710845 5 5 -0.055499472
3.5092053 -6.225296 1.3890896 14 13 -0.055497166
3.5022733 -6.2155337 1.6470916 19 14 -0.055492558
3.5367997 -6.2793703 -0.12579694 100 7 -0.055490255
3.5617037 -6.3261676 1.945284 67 15 -0.055487949
0.57215357 -1.0191488 -0.31317106 5 0 -0.055467214
3.5357397 -6.3006129 0.12611109 100 8 -0.055464908
0.68548214 -1.2220145 -0.32347962 4 1 -0.055462606
3.5313101 -6.2952948 0.37828431 94 9 -0.055460304
0.8382411 -1.4949507 -0.33315253 3 2 -0.055457998
1.9336493 -3.4499538 0.3460083 9 10 -0.055455696
1.0639941 -1.8991205 -0.34478158 2 3 -0.05545339
1.4898561 -2.6603291 0.37438264 8 11 -0.055451088
1.4384483 -2.5685341 -0.3614645 1 4 -0.055448782
3.5026245 -6.2569466 1.1357143 16 12 -0.055446479
3.5696321 -6.3792596 -0.63954884 5 5 -0.055444174
3.5096276 -6.2745943 1.3974851 14 13 -0.055441871
3.5225365 -6.3002534 1.6664374 24 14 -0.055437263
3.5208349 -6.2997923 -0.12597147 100 7 -0.055434957
3.5397635 -6.3362579 1.9447664 45 15 -0.055432655
0.57253134 -1.0277911 -0.31524161 5 0 -0.05541192
3.5148258 -6.3123035 0.12611109 67 8 -0.055409614
0.67194873 -1.2072533 -0.3189806 4 1 -0.055407312
3.5131979 -6.3145642 0.37870303 63 9 -0.055405006
0.83900607 -1.5080158 -0.33544225 3 2 -0.055402704
1.9212297 -3.4546061 0.34583399 9 10 -0.055400398
1.0500122 -1.8888263 -0.34227866 2 3 -0.055398095
1.4906678 -2.6826069 0.37682006 8 11 -0.055395789
1.4314014 -2.5770102 -0.36195198 1 4 -0.055393487
3.5066521 -6.3157649 1.1441618 23 12 -0.055391181
3.5173819 -6.3376961 1.4089336 26 13 -0.055386573
3.5260396 -6.3585253 1.6785848 30 14 -0.055381965
3.4871891 -6.2910562 -0.12555261 32 7 -0.055379663
3.5176246 -6.3485746 1.9447664 28 15 -0.055377357
0.56707174 -1.0264015 -0.31420633 5 0 -0.055356622
3.5295067 -6.3910532 0.12743747 27 8 -0.05535432
0.6771484 -1.226652 -0.32347962 4 1 -0.055352014
3.5036795 -6.3495221 0.38006377 31 9 -0.055349711
0.82614911 -1.4971838 -0.3323893 3 2 -0.055347405
1.9101218 -3.4630356 0.3460083 11 10 -0.055345103
1.0415051 -1.88902 -0.3416529 2 3 -0.055342797
1.4947087 -2.7121339 0.38023239 8 11 -0.055340495
1.4223971 -2.5819912 -0.36195198 1 4 -0.055338189
3.6675379 -6.6629601 1.4783882 87 13 -0.055331279
3.6841319 -6.6986403 1.7649659 100 14 -0.05532667
3.6549907 -6.6484027 -0.13242885 85 7 -0.055324368
3.7624619 -6.8467221 2.0933285 35 15 -0.055322062
0.56719869 -1.0351515 -0.31627688 5 0 -0.055301327
3.6608729 -6.6839514 0.13302223 49 8 -0.055299021
0.66911912 -1.2221709 -0.32168001 4 1 -0.055296719
3.6550412 -6.6788359 0.39900938 50 9 -0.055294413
0.80960786 -1.4793918 -0.32780987 3 2 -0.055292111
1.8932408 -3.4609423 0.34513673 9 10 -0.055289805
1.0349048 -1.892644 -0.3416529 2 3 -0.055287503
1.5166509 -2.774817 0.38827574 10 11 -0.055285197
1.417183 -2.5939085 -0.36292693 1 4 -0.055282895
3.6622515 -6.7058997 1.2101772 64 12 -0.055280589
3.7088401 -6.7940278 -0.67720014 6 5 -0.055278286
3.6743596 -6.730865 1.4906 68 13 -0.055275984
3.6709912 -6.730279 1.769915 90 14 -0.055271376
3.6461196 -6.6874561 -0.13295244 100 7 -0.05526907
3.7450104 -6.8716879 2.096952 65 15 -0.055266768
0.56247866 -1.0355258 -0.31575924 5 0 -0.055246029
3.650882 -6.7212906 0.13351092 49 8 -0.055243727
0.65740991 -1.2107985 -0.31808078 4 1 -0.055241421
3.6345634 -6.6968193 0.3993234 45 9 -0.055239119
0.81541431 -1.5030574 -0.3323893 3 2 -0.055236813
1.8757943 -3.459101 0.34426519 11 10 -0.05523451
1.0298437 -1.8998978 -0.34227866 2 3 -0.055232204
1.5315516 -2.825469 0.39461297 19 11 -0.055229902
1.398663 -2.5813861 -0.36048955 1 4 -0.0552276
3.6388211 -6.7186422 1.2101772 59 12 -0.055225294
3.6506004 -6.7460132 1.4909816 63 13 -0.055220686
3.65186 -6.753974 1.7726144 93 14 -0.055216078
3.6132426 -6.6825523 -0.13260339 85 7 -0.055213775
3.7090597 -6.8626251 2.0902226 78 15 -0.05521147
0.55061519 -1.0221758 -0.31110048 5 0 -0.055190735
3.6167428 -6.7170191 0.13316187 59 8 -0.055188429
0.66405064 -1.2337917 -0.32347962 4 1 -0.055186126
3.6140041 -6.7147417 0.3996374 50 9 -0.05518382
0.80830234 -1.5024365 -0.33162606 3 2 -0.055181518
1.856159 -3.4515896 0.34287068 11 10 -0.055179216
1.0232055 -1.9034811 -0.34227866 2 3 -0.05517691
1.5296415 -2.8468013 0.3968066 30 11 -0.055174608
1.3835567 -2.5760021 -0.35902712 1 4 -0.055172302
3.6200197 -6.740005 1.2117414 51 12 -0.05517
