# .PCD v0.7 - Point Cloud Data file format
VERSION 0.7
FIELDS x y z intensity ring time
SIZE 4 4 4 4 2 4
TYPE F F F F U F
COUNT 1 1 1 1 1 1
WIDTH 953
HEIGHT 1
VIEWPOINT 0 0 0 1 0 0 0
POINTS 953
DATA ascii
3.0142529 1.2405399 -0.28517357 14 5 -0.042224102
2.9576788 1.2166528 0.62165576 31 13 -0.042221799
2.9452467 1.2103369 0.73514003 34 14 -0.042217191
3.0409727 1.2490548 -0.057383511 125 7 -0.042214885
1.3028046 0.53485072 0.37735817 55 15 -0.042212583
0.97803992 0.40012643 -0.28314805 6 0 -0.042191848
3.0373781 1.2420063 0.057278797 118 8 -0.042189542
1.103984 0.4512023 -0.27534011 3 1 -0.04218724
3.0172546 1.233163 0.17082457 100 9 -0.042184934
1.310389 0.53529322 -0.27514657 4 2 -0.042182632
3.0343065 1.2388964 0.28674239 53 10 -0.042180326
1.6460487 0.67174059 -0.28158206 1 3 -0.042178024
3.0273006 1.2348015 0.40143764 33 11 -0.042175718
1.3547537 0.55231291 -0.17963544 2 4 -0.042173415
2.9614811 1.2073518 0.50653487 21 12 -0.042171109
3.0388608 1.2382816 -0.28709102 22 5 -0.042168807
2.9909997 1.2181689 0.62776166 20 13 -0.042166501
2.9566736 1.2029872 0.73693967 28 14 -0.042161893
3.0247231 1.2306745 -0.05699956 113 7 -0.042159591
1.3027817 0.5297994 0.37684056 55 15 -0.042157285
0.96510601 0.39090872 -0.27900696 6 0 -0.04213655
3.0433331 1.2326784 0.057313703 43 8 -0.042134248
1.1343755 0.45923892 -0.28253853 4 1 -0.042131942
3.0363526 1.2286159 0.17166196 56 9 -0.04212964
1.3067892 0.52850854 -0.27400175 5 2 -0.042127334
3.0478487 1.2320298 0.28761396 57 10 -0.042125031
1.4980919 0.60557264 -0.25592682 1 3 -0.042122725
3.0405815 1.2284747 0.40265635 73 11 -0.042120423
1.4081163 0.56863093 -0.18646011 1 4 -0.042118117
3.0407805 1.2273209 0.51936251 58 12 -0.042115815
3.0357745 1.2246841 -0.28639376 22 5 -0.042113509
3.0587466 1.2339516 0.64111823 90 13 -0.042111207
3.0600581 1.2332388 0.7616843 100 14 -0.042106599
3.0327103 1.2216022 -0.057069372 55 7 -0.042104296
1.2938706 0.52091992 0.37373474 59 15 -0.04210199
0.97536188 0.39130244 -0.28159514 6 0 -0.042081255
3.0420496 1.2198142 0.057208989 70 8 -0.04207895
1.1359718 0.4552761 -0.28253853 3 1 -0.042076647
3.055455 1.2239516 0.17249933 56 9 -0.042074341
1.3340495 0.53439242 -0.27934438 8 2 -0.042072039
3.0574665 1.2241383 0.2881369 55 10 -0.042069733
1.4305055 0.57245064 -0.24403779 1 3 -0.042067431
3.0688114 1.2274379 0.40582496 42 11 -0.042065125
1.3621681 0.54455298 -0.1801229 1 4 -0.042062823
3.0358748 1.2130336 0.51779813 40 12 -0.042060517
3.028718 1.2101738 -0.28534791 20 5 -0.042058215
3.0612121 1.2225395 0.64073664 43 13 -0.042055912
3.0552948 1.2189384 0.75943476 42 14 -0.042051304
3.0406709 1.2124906 -0.057139181 58 7 -0.042048998
1.2920918 0.51497012 0.37269944 59 15 -0.042046696
0.97313106 0.38646904 -0.28055987 5 0 -0.042025957
3.0481482 1.2099251 0.057243895 66 8 -0.042023655
1.1375538 0.45130885 -0.28253853 3 1 -0.042021349
3.0522821 1.2103329 0.17208064 58 9 -0.042019047
1.3523318 0.53624517 -0.28277895 14 2 -0.042016741
3.0487554 1.2083187 0.2869167 60 10 -0.042014439
1.4912636 0.5907349 -0.2540496 1 3 -0.042012133
3.0564663 1.2101406 0.4036313 45 11 -0.04200983
1.3456026 0.53249013 -0.17768551 1 4 -0.042007528
3.0345793 1.2002515 0.51685953 54 12 -0.042005222
3.0384815 1.2017949 -0.28587085 19 5 -0.04200292
3.0636353 1.2111238 0.64035505 73 13 -0.042000614
3.0667801 1.2111312 0.76123434 64 14 -0.041996006
3.043025 1.2011342 -0.057104275 47 7 -0.041993704
1.2938817 0.51045638 0.37269944 59 15 -0.041991398
0.97627181 0.38377726 -0.2810775 6 0 -0.041970663
3.0467691 1.1970844 0.057139181 59 8 -0.041968357
1.1246111 0.44163644 -0.27893931 3 1 -0.041966055
3.0451248 1.1958249 0.17145261 58 9 -0.041963749
1.3432304 0.52721721 -0.28048924 15 2 -0.041961446
3.0566642 1.1991252 0.28726533 57 10 -0.041959144
1.3940076 0.54658651 -0.23715468 1 3 -0.041956838
3.0532794 1.1965661 0.40265635 45 11 -0.041954536
1.3548465 0.53068608 -0.17866047 1 4 -0.04195223
3.0495789 1.1945037 0.51873678 50 12 -0.041949928
3.0426583 1.1911805 -0.28587085 19 5 -0.041947622
3.0532181 1.1946985 0.6373021 56 13 -0.04194532
3.0582843 1.1954517 0.75808507 67 14 -0.041940711
3.0507159 1.1924933 -0.057174087 47 7 -0.041938405
1.302765 0.50897455 0.37476999 59 15 -0.041936103
0.98300666 0.38246828 -0.28263038 5 0 -0.041915368
3.0488582 1.1862499 0.057104275 64 8 -0.041913062
1.1333346 0.44072953 -0.28073892 3 1 -0.04191076
3.0418336 1.1822945 0.17103392 55 9 -0.041908454
1.3542123 0.52608079 -0.28239733 6 2 -0.041906152
3.0589743 1.1877261 0.28709102 56 10 -0.041903846
1.4068613 0.5462504 -0.2390319 1 3 -0.041901544
3.0572298 1.1864365 0.40265635 48 11 -0.041899238
3.0353122 1.1767104 0.51560807 54 12 -0.04189463
3.046798 1.1805515 -0.28587085 19 5 -0.041892327
3.0608242 1.1859863 0.63806528 55 13 -0.041890021
3.0476933 1.1796751 0.75448585 63 14 -0.041885413
3.0362101 1.1746211 -0.056825034 48 7 -0.041883111
1.3063351 0.50512153 0.37528762 56 15 -0.041880805
0.97345352 0.37503907 -0.27952456 5 0 -0.04186007
3.0548468 1.1763179 0.057139181 59 8 -0.041857768
1.127591 0.43397176 -0.27893931 3 1 -0.041855462
3.0440784 1.1709515 0.17092925 51 9 -0.04185316
1.3504524 0.51947224 -0.28125247 3 2 -0.041850854
3.0535975 1.1740015 0.28621945 57 10 -0.041848551
1.6595331 0.63770008 -0.28158206 1 3 -0.041846246
3.063206 1.1764685 0.4029001 44 11 -0.041843943
3.1301281 1.201544 -0.41167468 1 4 -0.041841637
3.035712 1.1646934 0.51498228 54 12 -0.041839335
3.0471795 1.1684829 -0.28552222 22 5 -0.041837029
3.0612791 1.1738895 0.6373021 53 13 -0.041834727
3.0517924 1.1690301 0.75448585 67 14 -0.041830119
3.0402915 1.1640161 -0.056825034 50 7 -0.041827813
1.2972649 0.49641559 0.3721818 57 15 -0.041825511
0.96760058 0.36871725 -0.27745402 5 0 -0.041804776
3.058934 1.1656481 0.057139181 61 8 -0.04180247
1.1473105 0.4369688 -0.28343832 3 1 -0.041800167
3.050014 1.1610283 0.17103392 52 9 -0.041797861
1.3560171 0.51591569 -0.28201571 3 2 -0.041795559
3.0541551 1.1613859 0.28587085 57 10 -0.041793253
1.6877108 0.64143795 -0.28596222 1 3 -0.041790951
3.0710053 1.1671784 0.40338758 44 11 -0.041788645
3.1528599 1.1976604 -0.41411206 1 4 -0.041786343
3.0434527 1.1554927 0.51560807 54 12 -0.041784037
3.0382004 1.1528903 -0.28430203 28 5 -0.041781735
3.0545466 1.1584851 0.63501233 53 13 -0.041779429
3.0615239 1.1599073 0.75583553 66 14 -0.041774824
3.0443366 1.1533957 -0.056825034 50 7 -0.041772518
1.3007965 0.4925687 0.37269944 59 15 -0.041770216
0.97972763 0.36942682 -0.28055987 5 0 -0.041749477
3.046345 1.1480808 0.056825034 59 8 -0.041747175
1.1452571 0.43138659 -0.28253853 3 1 -0.041744869
3.0523796 1.1491386 0.17092925 57 9 -0.041742567
1.3431109 0.50564504 -0.27896276 3 2 -0.041740261
3.0619202 1.1521204 0.28621945 57 10 -0.041737959
1.6640539 0.62580836 -0.28158206 1 3 -0.041735653
3.0622554 1.1510264 0.40168139 50 11 -0.041733351
2.2095027 0.8300575 -0.28980532 1 4 -0.041731045
3.0402701 1.1415517 0.51435655 54 12 -0.041728742
3.0459366 1.1436794 -0.28465065 33 5 -0.04172644
3.0530584 1.1457455 0.63386756 51 13 -0.041724134
3.0619044 1.1478461 0.75493574 66 14 -0.041719526
3.0447984 1.1408274 -0.056755226 48 7 -0.041717224
1.300784 0.48711988 0.3721818 59 15 -0.041714918
0.98101109 0.36600488 -0.28055987 5 0 -0.041694183
3.0522075 1.1381395 0.05685994 64 8 -0.041691877
1.1284953 0.42058101 -0.27803952 3 1 -0.041689575
3.047014 1.1349901 0.17040588 52 9 -0.041687269
1.3448678 0.50095326 -0.27896276 3 2 -0.041684967
3.0584543 1.1386453 0.28552222 60 10 -0.041682664
1.6551201 0.61586303 -0.27970487 1 3 -0.041680358
3.0588124 1.1375614 0.40070644 48 11 -0.041678056
2.1937792 0.81542408 -0.28736794 1 4 -0.04167575
3.0516431 1.1336846 0.51560807 52 12 -0.041673448
3.0517776 1.1337345 -0.28482497 38 5 -0.041671142
3.0588796 1.1357638 0.63424915 53 13 -0.04166884
3.0549295 1.1330856 0.75223631 61 14 -0.041664232
3.0525122 1.1315813 -0.056825034 50 7 -0.041661926
1.3024763 0.48257658 0.3721818 57 15 -0.041659623
0.99315679 0.36659178 -0.28366569 5 0 -0.041638885
3.0561621 1.1274775 0.05685994 69 8 -0.041636582
1.1299565 0.41663951 -0.27803952 3 1 -0.04163428
3.0453353 1.1222758 0.17009188 57 9 -0.041631974
1.3521347 0.49829262 -0.28010762 2 2 -0.041629672
3.0717585 1.1314046 0.28639376 56 10 -0.041627366
1.6572597 0.61008215 -0.27970487 2 3 -0.041625064
3.0627644 1.126878 0.40070644 48 11 -0.041622758
2.1966124 0.80776083 -0.28736794 1 4 -0.041620456
3.0481656 1.1202987 0.51435655 54 12 -0.04161815
3.0538468 1.1223868 -0.28465065 45 5 -0.041615847
3.0628252 1.1250801 0.63424915 52 13 -0.041613542
3.0643549 1.1244282 0.75358605 67 14 -0.041608933
3.0414243 1.1154116 -0.056545798 52 7 -0.041606631
1.3077807 0.47935653 0.37321708 57 15 -0.041604325
0.98717171 0.36047247 -0.28159514 6 0 -0.04158359
3.0694716 1.1202313 0.057034463 59 8 -0.041581288
1.1460501 0.41803473 -0.28163874 3 1 -0.041578982
3.0473573 1.1109554 0.1699872 55 9 -0.04157668
1.3575548 0.49491501 -0.28087085 2 2 -0.041574374
3.0663288 1.1172655 0.28552222 60 10 -0.041572072
1.7076385 0.6218676 -0.28783944 2 3 -0.041569766
3.0704098 1.1175386 0.40119389 48 11 -0.041567463
2.1844945 0.79465979 -0.285418 1 4 -0.041565157
3.0427749 1.1062777 0.51279223 56 12 -0.041562855
3.0540009 1.1103592 -0.28430203 54 5 -0.041560549
3.0704248 1.1157222 0.63501233 52 13 -0.041558247
3.0572701 1.1097358 0.75088662 63 14 -0.041553639
3.03778 1.1020597 -0.056406178 52 7 -0.041551333
1.3039978 0.47281271 0.37166417 59 15 -0.041549031
0.98297304 0.35505572 -0.2800422 6 0 -0.041528296
3.0639589 1.106114 0.05685994 64 8 -0.04152599
1.1511686 0.41535416 -0.28253853 3 1 -0.041523688
3.0606108 1.1036996 0.17051056 60 9 -0.041521382
1.3814361 0.49816543 -0.28545028 2 2 -0.041519079
3.0664616 1.1052032 0.28517357 60 10 -0.041516773
1.6689126 0.60117447 -0.28095633 2 3 -0.041514471
3.0705562 1.1054697 0.40070644 48 11 -0.041512165
2.205934 0.79375017 -0.28785542 1 4 -0.041509863
3.0484772 1.0963174 0.51310509 52 12 -0.041507557
3.0316107 1.0902517 -0.28186166 48 5 -0.041505255
3.0632148 1.1010154 0.63272268 52 13 -0.041502949
3.0666277 1.1010319 0.75223631 66 14 -0.041498341
3.0491366 1.0941528 -0.056545798 52 7 -0.041496038
1.3038217 0.46760613 0.3711465 57 15 -0.041493736
0.98602575 0.35227203 -0.28055987 6 0 -0.041472998
3.0489686 1.0886884 0.056510892 66 8 -0.041470695
1.1415992 0.40740359 -0.27983913 3 1 -0.041468389
3.064445 1.0930085 0.17051056 60 9 -0.041466087
1.3720717 0.48938265 -0.28316057 2 2 -0.041463781
3.0703011 1.0944917 0.28517357 60 10 -0.041461479
1.6821656 0.59932339 -0.28283355 2 3 -0.041459173
3.0706565 1.0934122 0.40021896 48 11 -0.041456871
2.2236528 0.7913692 -0.28980532 2 4 -0.041454565
3.0560074 1.0869941 0.51373082 54 12 -0.041452263
3.0391519 1.0809988 -0.28221029 45 5 -0.041449957
3.0596399 1.0876848 0.6311962 52 13 -0.041447654
3.0631065 1.087713 0.75043672 66 14 -0.041443046
3.0529375 1.0835019 -0.056545798 52 7 -0.041440744
1.3072668 0.46369758 0.37166417 59 15 -0.041438438
0.99089235 0.35011539 -0.28159514 5 0 -0.041417703
3.0602922 1.0807029 0.056650508 66 8 -0.041415397
1.1356639 0.4008216 -0.27803952 3 1 -0.041413095
3.0605195 1.0801808 0.17009188 57 9 -0.041410789
1.3737718 0.48458987 -0.28316057 2 2 -0.041408487
3.0722232 1.0831075 0.28499928 65 10 -0.041406181
1.6917 0.59607333 -0.28408504 2 3 -0.041403878
3.0669653 1.0800487 0.39924401 51 11 -0.041401576
2.1963067 0.77344143 -0.28590551 1 4 -0.04139927
3.0558684 1.0755432 0.51310509 54 12 -0.041396968
3.0429072 1.0703828 -0.28221029 52 5 -0.041394662
3.0634184 1.0769972 0.6311962 53 13 -0.04139236
3.0630198 1.0762579 0.74953693 60 14 -0.041387752
3.0621743 1.0753589 -0.056650508 54 7 -0.041385446
1.3069743 0.45872045 0.3711465 56 15 -0.041383144
0.99934232 0.34937796 -0.28366569 5 0 -0.041362405
3.0600839 1.0692286 0.0565807 64 8 -0.041360103
1.1443459 0.39962351 -0.27983913 3 1 -0.0413578
3.0565419 1.0673923 0.16967319 57 9 -0.041355494
1.3864924 0.48391423 -0.28545028 2 2 -0.041353192
3.0757983 1.0729128 0.28499928 62 10 -0.041350886
1.7235115 0.60086507 -0.28909093 2 3 -0.041348584
3.0705295 1.0698744 0.39924401 48 11 -0.041346278
2.2176046 0.77268708 -0.28834289 1 4 -0.041343976
3.0575531 1.0647529 0.51279223 56 12 -0.04134167
3.0539663 1.0629064 -0.28290752 57 5 -0.041339368
3.0614104 1.0648967 0.63005131 50 13 -0.041337062
3.0610499 1.0641741 0.74818724 57 14 -0.041332453
3.050612 1.0599487 -0.056371275 54 7 -0.041330151
1.3157883 0.45691842 0.37321708 57 15 -0.041327845
0.99684393 0.3447988 -0.28263038 5 0 -0.04130711
3.0692825 1.0610358 0.056685418 61 8 -0.041304808
1.1530325 0.39837176 -0.28163874 3 1 -0.041302502
3.060065 1.0572499 0.16967319 57 9 -0.0413002
1.3880897 0.47931343 -0.28545028 2 2 -0.041297894
3.0718055 1.0601078 0.28430203 65 10 -0.041295592
1.7292296 0.59643412 -0.28971666 2 3 -0.041293286
3.070307 1.0583915 0.3987565 53 11 -0.041290984
2.246429 0.77438545 -0.29175523 1 4 -0.041288678
3.0479934 1.0501045 0.51060218 55 12 -0.041286375
3.0537069 1.0514752 -0.28255892 61 5 -0.041284069
3.07235 1.0572964 0.63157779 51 13 -0.041281767
3.0664046 1.0546517 0.74863708 60 14 -0.041277159
3.050328 1.0485256 -0.056301463 54 7 -0.041274853
1.3063337 0.44878745 0.37011126 57 15 -0.041272551
0.99067068 0.3389897 -0.28055987 5 0 -0.041251816
3.0576477 1.0456743 0.056406178 61 8 -0.04124951
1.1543472 0.39454618 -0.28163874 3 1 -0.041247208
3.063554 1.0470971 0.16967319 60 9 -0.041244902
1.3896714 0.47470796 -0.28545028 2 2 -0.041242599
3.0753045 1.0499146 0.28430203 65 10 -0.041240294
1.7087634 0.58304203 -0.28596222 1 3 -0.041237991
3.081315 1.0507677 0.39973149 50 11 -0.041235685
2.2339535 0.76180655 -0.28980532 1 4 -0.041233383
3.04772 1.0387158 0.50997645 57 12 -0.041231077
3.0515187 1.0394163 -0.28203598 72 5 -0.041228775
3.0665464 1.0439395 0.62966973 52 13 -0.041226469
3.0735753 1.045732 0.74953693 60 14 -0.041221861
3.0537879 1.0384052 -0.056301463 54 7 -0.041219559
1.3059856 0.44383165 0.36959362 54 15 -0.041217253
0.99196512 0.33518308 -0.28055987 6 0 -0.041222572
3.0635345 1.0345666 0.056441084 64 8 -0.04122027
1.1632394 0.39260337 -0.28343832 3 1 -0.041217964
3.0694447 1.0359643 0.16977786 61 9 -0.041215662
1.391484 0.46936819 -0.28545028 2 2 -0.041213356
3.0717611 1.0355535 0.28360477 62 10 -0.041211054
1.7222214 0.58026046 -0.28783944 2 3 -0.041208748
3.0740395 1.0351268 0.39826906 54 11 -0.041206446
2.2368622 0.75322264 -0.28980532 1 4 -0.04120414
3.057302 1.0288967 0.51091504 53 12 -0.041201837
3.0592647 1.0289613 -0.2823846 72 5 -0.041199531
3.0649498 1.0302796 0.62852484 50 13 -0.041197229
3.0794146 1.0345439 0.74998683 67 14 -0.041192621
3.0577528 1.0266711 -0.056301463 56 7 -0.041190315
1.3058487 0.43819883 0.36907598 49 15 -0.041188013
1.0113933 0.33801541 -0.28573623 5 0 -0.041167278
3.065052 1.0237676 0.056406178 74 8 -0.041164972
1.1460497 0.38257399 -0.27893931 3 1 -0.04116267
3.0652845 1.0232524 0.16935916 61 9 -0.041160364
1.4079316 0.46972218 -0.28850323 2 2 -0.041158061
3.0846288 1.0285116 0.28447634 67 10 -0.041155756
1.7391286 0.57954258 -0.29034239 2 3 -0.041153453
3.0736883 1.0236733 0.39778158 53 11 -0.041151147
2.2657151 0.7545827 -0.29321766 1 4 -0.041148845
3.0625715 1.0193757 0.51122791 57 12 -0.041146539
3.0626597 1.0188112 -0.2823846 85 5 -0.041144237
3.0720756 1.0213481 0.62928808 50 13 -0.041141931
3.071733 1.0206389 0.74728745 61 14 -0.041137323
3.0649364 1.0177866 -0.056371275 54 7 -0.041135021
1.3127953 0.43569124 0.37062889 47 15 -0.041132715
1.0015032 0.33102173 -0.28263038 5 0 -0.04111198
3.0703285 1.0142257 0.056441084 64 8 -0.041109677
1.1473123 0.3787711 -0.27893931 3 1 -0.041107371
3.0650444 1.0112938 0.16914983 61 9 -0.041105069
1.3909177 0.45865613 -0.28468704 2 2 -0.041102763
3.0842381 1.0170298 0.28412771 67 10 -0.041100461
1.7372885 0.57253599 -0.28971666 2 3 -0.041098155
3.0732954 1.0122322 0.3972941 51 11 -0.041095853
2.2268531 0.73301399 -0.28785542 1 4 -0.041093547
3.0473464 1.0025066 0.5080992 55 12 -0.041091245
3.0680897 1.0087373 -0.28255892 81 5 -0.041088939
3.0737567 1.0100062 0.62890649 52 13 -0.041086636
3.0697229 1.0080855 0.74593771 64 14 -0.041082028
3.0608702 1.0045881 -0.056231655 56 7 -0.041079726
1.3234861 0.43411687 0.37321708 40 15 -0.04107742
1.0063826 0.32854816 -0.28366569 5 0 -0.041056685
3.0740252 1.0029663 0.056441084 64 8 -0.041054379
1.1783366 0.38422933 -0.28613773 3 1 -0.041052077
3.0630331 0.99819708 0.1688358 57 9 -0.041049771
1.4000565 0.45598665 -0.28621352 3 2 -0.041047469
3.0784729 1.0026327 0.28325617 65 10 -0.041045163
1.7356186 0.56494141 -0.28909093 2 3 -0.041042861
3.08076 1.0021901 0.39778158 54 11 -0.041040555
2.2446275 0.72975665 -0.28980532 1 4 -0.041038252
3.0510006 0.99133003 0.5080992 59 12 -0.04103595
3.0585015 0.99317873 -0.28133872 72 5 -0.041033644
3.0867751 1.0017629 0.63081461 51 13 -0.041031342
3.0752504 0.99742949 0.7463876 66 14 -0.041026734
3.0493133 0.98843044 -0.055952415 56 7 -0.041024428
3.0746737 0.99605644 0.86600858 46 15 -0.041022126
1.0075802 0.32485715 -0.28366569 5 0 -0.041001387
3.0700672 0.98923868 0.056301463 64 8 -0.040999085
1.179737 0.3799082 -0.28613773 3 1 -0.040996779
3.0722027 0.98933494 0.16914983 63 9 -0.040994477
1.4165902 0.45590875 -0.28926644 2 2 -0.040992171
3.0821266 0.99134356 0.28325617 65 10 -0.040989868
1.7451999 0.56099468 -0.29034239 1 3 -0.040987566
3.0844126 0.99089098 0.39778158 53 11 -0.04098526
2.2962997 0.73770374 -0.29614252 1 4 -0.040982958
3.0563233 0.9812786 0.50841206 53 12 -0.040980652
3.0600524 0.98188686 -0.28116441 64 5 -0.04097835
3.0752971 0.9861865 0.62776166 51 13 -0.040976044
3.080569 0.98728418 0.7468375 64 14 -0.040971436
3.0641718 0.98143941 -0.056161843 56 7 -0.040969133
3.0891709 0.98885214 0.8691144 75 15 -0.040966827
0.99760836 0.31799358 -0.28055987 5 0 -0.040946092
3.0657096 0.97662538 0.056161843 72 8 -0.040943787
1.1809903 0.37599361 -0.28613773 3 1 -0.040941484
3.0773699 0.9797467 0.1692545 60 9 -0.040939182
1.4143529 0.45001775 -0.28850323 2 2 -0.040936876
3.0778022 0.97870296 0.28255892 65 10 -0.040934574
1.7282249 0.5492211 -0.28721371 2 3 -0.040932268
3.0763302 0.97705102 0.39631912 53 11 -0.040929966
2.3063018 0.73248786 -0.2971175 1 4 -0.04092766
3.0539117 0.96934581 0.50747347 55 12 -0.040925357
3.0556955 0.96932346 -0.28046718 57 5 -0.040923052
3.0729363 0.97420233 0.62661678 53 13 -0.040920749
3.0819681 0.9764753 0.7463876 61 14 -0.040916141
3.063597 0.97006476 -0.056092035 56 7 -0.040913835
3.0758569 0.97335619 0.86445564 58 15 -0.040911533
1.0133973 0.31932908 -0.28470096 6 0 -0.040890798
3.0689316 0.9664529 0.056161843 69 8 -0.040888492
1.1562067 0.36388516 -0.27983913 3 1 -0.04088619
3.069339 0.96540529 0.16862647 60 9 -0.040883884
1.4270738 0.44886038 -0.29079291 2 2 -0.040881582
3.0810311 0.96849036 0.28255892 65 10 -0.040879276
1.7639588 0.55414402 -0.29284537 2 3 -0.040876973
3.0757651 0.96565551 0.39583167 54 11 -0.040874667
2.2899039 0.71849054 -0.29468012 1 4 -0.040872365
3.0610468 0.95986098 0.5080992 57 12 -0.040870059
3.0685666 0.96163082 -0.28133872 59 5 -0.040867757
3.0798969 0.96518147 0.62738001 55 13 -0.040865451
3.0834985 0.96512836 0.74593771 64 14 -0.040860843
3.0745981 0.96175343 -0.056231655 56 7 -0.040858541
3.0829232 0.96376693 0.86549091 60 15 -0.040856235
1.0219399 0.31790727 -0.28677151 6 0 -0.0408355
3.0799241 0.9581095 0.056301463 66 8 -0.040833198
1.1723568 0.36447552 -0.28343832 3 1 -0.040830892
3.0745978 0.95527726 0.16873114 61 9 -0.040828589
1.4287097 0.44362584 -0.29079291 2 2 -0.040826283
3.0978801 0.96132547 0.28377908 67 10 -0.040823981
1.7471106 0.54182422 -0.28971666 2 3 -0.040821675
3.0829089 0.95608985 0.39631912 54 11 -0.040819373
2.2961903 0.7116676 -0.2951676 1 4 -0.040817067
3.054944 0.94624847 0.50653487 53 12 -0.040814765
3.0623879 0.94796848 -0.28046718 48 5 -0.040812459
3.0796628 0.95272535 0.62661678 52 13 -0.040810157
3.0702577 0.94864333 0.74188858 57 14 -0.040805548
3.0683832 0.94806421 -0.056057129 58 7 -0.040803246
3.0825772 0.95185894 0.86445564 60 15 -0.04080094
1.0119634 0.31093442 -0.28366569 5 0 -0.040780205
3.0910616 0.94916326 0.056441084 66 8 -0.040777899
1.1662329 0.35788903 -0.28163874 3 1 -0.040775597
3.077914 0.94453824 0.16873114 61 9 -0.040773291
1.4189875 0.43518317 -0.28850323 2 2 -0.040770989
3.0878825 0.94641817 0.28255892 65 10 -0.040768683
1.760324 0.53919309 -0.29159388 2 3 -0.040766381
3.0863922 0.9447847 0.39631912 51 11 -0.040764075
2.306376 0.70557022 -0.29614252 1 4 -0.040761773
3.0601175 0.93615597 0.50684774 55 12 -0.040759467
3.0561519 0.93435955 -0.27959561 47 5 -0.040757164
3.0848467 0.94254535 0.62699842 51 13 -0.040754862
3.0810063 0.94019467 0.74368823 66 14 -0.040750254
3.0678492 0.9361797 -0.055987321 58 7 -0.040747948
3.0821846 0.93996799 0.86342037 58 15 -0.040745646
1.0093453 0.3062779 -0.28263038 6 0 -0.040724907
3.0807972 0.93484378 0.056196753 77 8 -0.040722605
1.1823324 0.35854357 -0.28523794 3 1 -0.040720299
3.081192 0.93378925 0.16873114 63 9 -0.040717997
1.4017084 0.42453614 -0.28468704 2 2 -0.040715691
3.0854466 0.93390131 0.28203598 67 10 -0.040713388
1.746977 0.52877408 -0.28909093 2 3 -0.040711083
3.0971091 0.93684286 0.3972941 51 11 -0.04070878
2.3087029 0.69791859 -0.29614252 1 4 -0.040706478
3.061476 0.92489642 0.50653487 51 12 -0.040704172
3.0498579 0.92080718 -0.27872407 43 5 -0.04070187
3.086076 0.93174213 0.62661678 53 13 -0.040699564
3.085973 0.93053424 0.74413806 60 14 -0.040694956
3.0653541 0.92373496 -0.055882607 56 7 -0.040692654
3.078048 0.9269743 0.86134982 58 15 -0.040690348
1.0103555 0.30292884 -0.28263038 6 0 -0.040669613
3.0744638 0.92121345 0.056022223 66 8 -0.040667307
1.1761092 0.35217905 -0.28343832 3 1 -0.040665004
3.0882599 0.92417258 0.16894048 63 9 -0.040662698
1.4143938 0.42326227 -0.28697675 2 2 -0.040660396
3.0923443 0.92480689 0.2823846 67 10 -0.040658094
1.7601678 0.52606797 -0.29096815 2 3 -0.040655788
3.0813398 0.92034423 0.39485672 51 11 -0.040653486
2.2844951 0.68190587 -0.29273018 1 4 -0.04065118
3.070364 0.91590035 0.50747347 55 12 -0.040648878
3.0528944 0.91068906 -0.27872407 43 5 -0.040646572
3.0799026 0.91815883 0.62470871 51 13 -0.040644269
3.0929375 0.9208709 0.74503791 68 14 -0.040639661
3.0704768 0.91359872 -0.055917513 58 7 -0.040637355
3.0812654 0.91622341 0.86134982 58 15 -0.040635053
1.0151113 0.30049762 -0.28366569 5 0 -0.040614318
3.0776608 0.91047662 0.056022223 69 8 -0.040612012
1.1735939 0.34696621 -0.28253853 3 1 -0.04060971
3.0799739 0.90999347 0.16831245 61 9 -0.040607404
1.4346902 0.42388627 -0.29079291 2 2 -0.040605102
3.0917315 0.91287911 0.28203598 70 10 -0.040602796
1.7468365 0.51544774 -0.2884652 2 3 -0.040600494
3.0807259 0.90845895 0.39436921 53 11 -0.040598188
2.2830529 0.67280561 -0.29224271 1 4 -0.040595885
3.0697527 0.90406018 0.50684774 55 12 -0.040593579
3.0617888 0.90171474 -0.27924702 42 5 -0.040591277
3.0849724 0.90795588 0.6250903 52 13 -0.040588971
3.0849152 0.90677071 0.74233848 64 14 -0.040584363
3.0832407 0.90569234 -0.056092035 56 7 -0.040582061
3.0881519 0.90655124 0.86238509 60 15 -0.040579755
1.0161542 0.29695213 -0.28366569 5 0 -0.04055902
3.0884986 0.90196955 0.056161843 72 8 -0.040556718
1.1785393 0.34395969 -0.28343832 3 1 -0.040554412
3.0773795 0.89755827 0.16799843 66 9 -0.040552109
1.4286222 0.41667649 -0.28926644 2 2 -0.040549804
3.0968125 0.90263814 0.28221029 65 10 -0.040547501
1.7334526 0.50492781 -0.28596222 2 3 -0.040545195
3.0876896 0.89881152 0.39485672 53 11 -0.040542893
2.2968242 0.66815847 -0.29370514 1 4 -0.040540587
3.0653024 0.8911342 0.50559622 57 12 -0.040538285
3.0572646 0.88879746 -0.27854973 39 5 -0.040535979
3.086237 0.89663619 0.62470871 50 13 -0.040533677
3.0805757 0.89382386 0.74053884 60 14 -0.040529069
3.0767796 0.89214194 -0.055917513 58 7 -0.040526763
3.0912976 0.89576519 0.86238509 60 15 -0.04052446
1.0171846 0.29340303 -0.28366569 5 0 -0.040503725
3.0916278 0.89118379 0.056161843 69 8 -0.040501419
1.183478 0.34092227 -0.28433815 3 1 -0.040499117
3.0766556 0.88570493 0.16778909 65 9 -0.040496811
1.4300681 0.41168678 -0.28926644 2 2 -0.040494509
3.0942001 0.89017087 0.28168735 70 10 -0.040492203
1.7807679 0.5119729 -0.2934711 2 3 -0.040489901
3.0869927 0.88693082 0.39436921 54 11 -0.040487595
2.3105905 0.66342449 -0.2951676 1 4 -0.040485293
3.0607996 0.87824881 0.50434476 55 12 -0.040482987
3.0718393 0.8814165 -0.27959561 46 5 -0.040480684
3.0950098 0.88748038 0.62585354 20 13 -0.040478379
3.0911705 0.88521183 0.74233848 68 14 -0.040473774
3.0721853 0.87919497 -0.055777889 58 7 -0.040471468
3.0869758 0.88284487 0.86031455 58 15 -0.040469166
1.0144863 0.28879291 -0.28263038 5 0 -0.040448427
3.0812559 0.87655705 0.055917513 74 8 -0.040446125
1.1884098 0.33785456 -0.28523794 3 1 -0.040443819
3.0757339 0.87440437 0.16757976 65 9 -0.040441517
1.4314964 0.40669268 -0.28926644 2 2 -0.040439211
3.0934551 0.878277 0.28133872 70 10 -0.040436909
1.717932 0.4874211 -0.28283355 1 3 -0.040434603
3.0900698 0.87615049 0.39436921 54 11 -0.0404323
2.3663692 0.67050815 -0.30199227 1 4 -0.040429994
3.0655951 0.86863303 0.50465763 51 12 -0.040427692
3.0729804 0.87014472 -0.2794213 45 5 -0.04042539
3.0886159 0.8728255 0.74098879 61 14 -0.040418476
3.0770085 0.86954534 -0.055812798 56 7 -0.040416174
3.0843091 0.87102878 0.85876161 63 15 -0.040413868
1.0266477 0.28838429 -0.28573623 5 0 -0.040393133
3.0841458 0.86633354 0.055917513 74 8 -0.040390827
1.1857711 0.33285865 -0.28433815 3 1 -0.040388525
3.0864592 0.86582112 0.16799843 62 9 -0.040386219
1.4593728 0.40911213 -0.2946091 2 2 -0.040383916
3.0984209 0.86801016 0.28151307 65 10 -0.040381614
1.7309517 0.48491916 -0.28471076 1 3 -0.040379308
3.0891352 0.86482739 0.39388174 53 11 -0.040377006
2.3704917 0.6631915 -0.30223599 3 4 -0.0403747
3.0667067 0.85739422 0.50434476 16 12 -0.040372398
3.075999 0.85941339 -0.2794213 45 5 -0.040370092
1.3311521 0.37191492 0.26865909 3 13 -0.04036779
3.087739 0.86153167 0.740089 57 14 -0.040363181
3.0780988 0.8582629 -0.055777889 58 7 -0.040360875
3.0891919 0.86077499 0.85927927 60 15 -0.040358573
1.0313214 0.28601095 -0.28677151 5 0 -0.040337835
3.0910053 0.85663134 0.055987321 74 8 -0.040335532
1.1756575 0.32559705 -0.28163874 3 1 -0.04033323
3.079838 0.85237908 0.16747507 66 9 -0.040330924
1.4304473 0.39589205 -0.28850323 2 2 -0.040328622
3.1032021 0.8582623 0.28168735 67 10 -0.040326316
1.7821376 0.49255657 -0.29284537 2 3 -0.040324014
3.0844812 0.85192573 0.39290681 45 11 -0.040321708
2.3345215 0.6443491 -0.29736122 3 4 -0.040319405
3.0751383 0.84761262 -0.27907267 41 5 -0.040314797
1.3059447 0.35996273 0.26331642 7 13 -0.040312491
3.0850909 0.84919739 0.73873925 60 14 -0.040307883
3.0887883 0.84963363 -0.055917513 60 7 -0.040305581
3.0959034 0.85100967 0.86031455 58 15 -0.040303275
1.0398167 0.28426656 -0.28884208 5 0 -0.04028254
3.0881901 0.84425378 0.055882607 72 8 -0.040280238
1.1843064 0.32354522 -0.28343832 3 1 -0.040277932
3.0827944 0.8416239 0.16747507 66 9 -0.04027563
1.4356768 0.39167958 -0.28926644 2 2 -0.040273324
3.1024828 0.8458339 0.28133872 67 10 -0.040271021
1.7763071 0.48394477 -0.29159388 2 3 -0.040268715
2.3750639 0.64662611 -0.30223599 3 4 -0.040264107
1.3228266 0.35989997 0.21713105 4 12 -0.040261805
3.0838461 0.83844215 -0.27959561 39 5 -0.040259499
1.3110443 0.35620293 0.26407966 7 13 -0.040257197
3.0825405 0.83635253 0.73738956 61 14 -0.040252589
3.0782254 0.83518177 -0.055673175 56 7 -0.040250283
3.0951259 0.83918738 0.85927927 60 15 -0.040247981
1.0184197 0.27460024 -0.28263038 5 0 -0.040227246
3.0912635 0.83292991 0.055882607 69 8 -0.04022494
1.1967745 0.32224262 -0.28613773 3 1 -0.040222637
3.08393 0.82979947 0.16737041 61 9 -0.040220331
1.4332436 0.38564587 -0.28850323 2 2 -0.040218029
3.0957959 0.8324129 0.28046718 37 10 -0.040215723
1.7627239 0.47364008 -0.28909093 2 3 -0.040213421
1.3228562 0.35520038 0.16817972 2 11 -0.040211115
2.4157634 0.64820635 -0.30711079 3 4 -0.040208813
3.0809808 0.82612342 -0.27907267 40 5 -0.040204205
1.3217616 0.35416466 0.26598775 9 13 -0.040201899
3.0910885 0.82709926 0.73873925 60 14 -0.04019729
3.0831981 0.82440972 -0.055708081 60 7 -0.040194988
3.0944481 0.82684082 0.858244 60 15 -0.040192686
1.0268399 0.27302948 -0.28470096 5 0 -0.040171947
3.086422 0.82007951 0.055742987 72 8 -0.040169645
1.1941251 0.31706259 -0.28523794 3 1 -0.040167339
3.0906684 0.82005459 0.16757976 62 9 -0.040165037
1.4459665 0.38366181 -0.29079291 2 2 -0.040162731
1.7720046 0.46950743 -0.29034239 2 3 -0.040158123
1.3202498 0.34956527 0.16769223 20 11 -0.040155821
2.3470063 0.62098229 -0.29809242 1 4 -0.040153515
1.2948122 0.34234586 0.21212517 78 12 -0.040151212
3.0742152 0.81281656 -0.27820113 42 5 -0.040148906
1.3097029 0.34603906 0.26331642 7 13 -0.040146604
3.0977256 0.81729776 0.73963904 60 14 -0.040141996
3.0783219 0.81160533 -0.055568464 60 7 -0.040139694
3.0898433 0.81406456 0.8561734 60 15 -0.040137388
1.0315243 0.27042302 -0.28573623 5 0 -0.040116653
3.0853965 0.80828792 0.055673175 66 8 -0.040114347
1.198995 0.31387967 -0.28613773 3 1 -0.040112045
3.0933712 0.80980015 0.16757976 16 9 -0.040109739
1.447297 0.37861171 -0.29079291 2 2 -0.040107436
1.3493304 0.35273144 0.12201804 1 10 -0.040105131
1.7812777 0.46531656 -0.29159388 2 3 -0.040102828
2.3798928 0.62080204 -0.30199227 1 4 -0.04009822
1.3112317 0.34203866 0.21462812 75 12 -0.040095918
3.0847452 0.80409145 -0.27889836 46 5 -0.040093612
1.310903 0.34146488 0.26331642 6 13 -0.04009131
3.1005595 0.80648029 0.73963904 60 14 -0.040086702
3.0887377 0.8034054 -0.055708081 60 7 -0.040084396
3.0962651 0.80478644 0.85720873 58 15 -0.040082093
1.0343323 0.26730424 -0.28625387 6 0 -0.040061355
3.0822518 0.79655159 0.055568464 32 8 -0.040059052
1.2075766 0.31185126 -0.28793734 3 1 -0.04005675
1.456214 0.37551865 -0.29231939 2 2 -0.040052142
1.317754 0.33956826 0.11905474 6 10 -0.040049836
1.7904624 0.46137914 -0.29284537 1 3 -0.040047534
1.3110645 0.33759978 0.1662298 52 11 -0.040045228
2.3242643 0.59806675 -0.29468012 1 4 -0.040042926
1.3066781 0.33598465 0.21368951 94 12 -0.04004062
3.0817444 0.7918306 -0.27837545 40 5 -0.040038317
1.3158311 0.33809268 0.26407966 6 13 -0.040036011
3.0881157 0.79232025 0.73603982 46 14 -0.040031403
3.0915236 0.79261798 -0.055708081 58 7 -0.040029101
3.1027985 0.79493165 0.858244 60 15 -0.040026795
1.0408289 0.26530454 -0.28780681 5 0 -0.04000606
1.2086579 0.30763382 -0.28793734 3 1 -0.040001452
1.3045591 0.33204308 0.070548877 19 9 -0.03999915
1.4574512 0.3706879 -0.29231939 2 2 -0.039996844
1.3343209 0.33912235 0.12044924 9 10 -0.039994542
1.7920622 0.45512596 -0.29284537 1 3 -0.039992236
1.3122346 0.33302218 0.1662298 51 11 -0.039989933
2.3455794 0.5948301 -0.2971175 1 4 -0.039987627
1.300126 0.32970703 0.21243803 100 12 -0.039985325
3.0959413 0.78454393 -0.2794213 45 5 -0.039983019
1.3284221 0.33639002 0.26636937 6 13 -0.039980717
3.0908628 0.78153509 0.73603982 42 14 -0.039976109
3.0883188 0.78089184 -0.055603366 42 7 -0.039973803
3.1072905 0.78511035 0.85876161 63 15 -0.039971501
1.0361277 0.26025757 -0.28625387 6 0 -0.039950766
1.318825 0.33126631 0.023735272 1 8 -0.03994846
1.2172319 0.3055214 -0.28973696 3 1 -0.039946157
1.4587363 0.36559778 -0.29231939 2 2 -0.039941549
1.3277658 0.33252621 0.11975199 9 10 -0.039939243
1.7897291 0.44822046 -0.29221961 1 3 -0.039936941
1.3152577 0.32915038 0.16647354 39 11 -0.039934635
2.4264963 0.60679394 -0.30711079 3 4 -0.039932333
1.2955197 0.32372972 0.21149944 85 12 -0.039930027
3.0851295 0.77035421 -0.27820113 39 5 -0.039927725
1.3181018 0.32912889 0.26407966 7 13 -0.039925419
3.0896561 0.77033734 0.73514003 31 14 -0.039920811
3.1006384 0.77192771 0.8561734 58 15 -0.039916202
1.0276537 0.25431857 -0.28366569 6 0 -0.039901495
1.318089 0.32595056 0.023700368 16 8 -0.039899193
1.199425 0.29638338 -0.28523794 3 1 -0.039896887
1.3262347 0.32771865 0.071595594 100 9 -0.039894585
1.4561918 0.35956198 -0.29155618 2 2 -0.039892279
1.3192464 0.32550395 0.11888044 9 10 -0.039889976
1.8067034 0.4454411 -0.29472256 1 3 -0.03988767
1.3203102 0.32527691 0.16696103 37 11 -0.039885368
2.3900506 0.58882236 -0.30223599 3 4 -0.039883062
1.2947234 0.3187342 0.21118654 93 12 -0.03988076
3.0781264 0.7572 -0.27732956 34 5 -0.039878454
1.3040472 0.32054615 0.26102671 7 13 -0.039876152
3.1017885 0.76187259 0.73738956 20 14 -0.039871544
3.0995619 0.76017869 0.85513818 60 15 -0.039866935
1.0266144 0.25045165 -0.28314805 6 0 -0.0398462
1.3113915 0.31968305 0.023560748 25 8 -0.039843895
1.1928278 0.29055977 -0.28343832 3 1 -0.039841592
1.3234332 0.32237381 0.071386255 100 9 -0.039839286
1.4459307 0.35194483 -0.28926644 2 2 -0.039836984
1.3222545 0.32159784 0.11905474 9 10 -0.039834678
1.7697805 0.43011767 -0.2884652 2 3 -0.039832376
1.3117366 0.3185541 0.16574231 31 11 -0.03983007
2.4305708 0.59026206 -0.30711079 3 4 -0.039827768
1.2976933 0.31490451 0.21149944 85 12 -0.039825462
3.0806203 0.74698901 -0.27732956 28 5 -0.03982316
1.3108274 0.3176066 0.26217157 9 13 -0.039820854
3.1042979 0.75158316 0.73738956 16 14 -0.039816245
1.3177783 0.31880456 -0.023665464 3 7 -0.039813943
3.100188 0.74944109 0.85462052 63 15 -0.039811637
1.0405875 0.25020757 -0.28677151 6 0 -0.039790902
1.3241106 0.3181358 0.023770178 22 8 -0.0397886
1.2127337 0.29115152 -0.28793734 3 1 -0.039786294
1.3128974 0.31495702 0.070758224 100 9 -0.039783992
1.4700603 0.3523882 -0.29384586 2 2 -0.039781686
1.3233137 0.31721157 0.11905474 10 10 -0.039779384
1.7980919 0.43068796 -0.29284537 2 3 -0.039777078
1.3050634 0.31235513 0.16476737 22 11 -0.039774776
2.3940029 0.5725413 -0.30223599 3 4 -0.03977247
1.3064697 0.31220895 0.2127509 100 12 -0.039770167
3.1006501 0.74039489 -0.27889836 30 5 -0.039767861
1.3157471 0.31394058 0.2629348 9 13 -0.039765559
3.0917375 0.73712611 0.73379034 12 14 -0.039760951
1.3286096 0.31651947 -0.023839988 15 7 -0.039758649
3.1009057 0.73816818 0.85410291 58 15 -0.039756343
1.0452576 0.24728119 -0.28780681 5 0 -0.039735608
1.32916 0.31420028 0.023839988 19 8 -0.039733302
1.2024133 0.28401706 -0.28523794 3 1 -0.039731
1.3023798 0.30738977 0.070130184 100 9 -0.039728694
1.4484119 0.34158966 -0.28926644 2 2 -0.039726391
1.3341634 0.31464559 0.1199263 10 10 -0.039724085
1.8035035 0.42500126 -0.2934711 1 3 -0.039721783
1.3139284 0.30938932 0.16574231 15 11 -0.039719477
2.4270027 0.5710367 -0.3061358 3 4 -0.039717175
1.2999134 0.30561039 0.21149944 100 12 -0.039714873
3.0994637 0.7281149 -0.27854973 24 5 -0.039712567
1.3245342 0.31091088 0.26446128 9 13 -0.039710265
1.3034123 0.30571294 0.30908275 7 14 -0.039705656
1.3200259 0.30936658 -0.023665464 21 7 -0.039703351
3.1111145 0.72855896 0.8561734 60 15 -0.039701048
1.0386305 0.24169727 -0.28573623 5 0 -0.03968031
1.3322504 0.30977911 0.023874892 23 8 -0.039678007
1.2034461 0.27960837 -0.28523794 3 1 -0.039675701
1.3073359 0.30374607 0.070339531 100 9 -0.039673399
1.4495956 0.33653131 -0.28926644 3 2 -0.039671093
1.331426 0.30885273 0.11957768 11 10 -0.039668791
1.8127465 0.42017281 -0.29472256 2 3 -0.039666489
1.311186 0.30367532 0.16525485 11 11 -0.039664183
3.0672932 0.70983201 -0.38656959 3 4 -0.039661881
1.2971232 0.30017987 0.21087368 100 12 -0.039659575
3.0883982 0.71414995 -0.27732956 22 5 -0.039657272
1.3370887 0.30893701 0.26675099 9 13 -0.039654966
1.3292093 0.30662847 0.31493148 22 14 -0.039650358
1.3133037 0.30295923 -0.023525843 23 7 -0.039648056
3.1061084 0.71595973 0.85410291 58 15 -0.03964575
1.0470003 0.23979516 -0.28780681 5 0 -0.039625015
1.3352196 0.30580622 0.023909798 25 8 -0.039622709
1.2157646 0.27822408 -0.28793734 3 1 -0.039620407
1.3083882 0.29918042 0.070339531 100 9 -0.039618105
1.4890403 0.34021544 -0.29689881 2 2 -0.039615799
1.3111295 0.29932567 0.11766025 12 10 -0.039613497
1.7871684 0.40800351 -0.29034239 1 3 -0.039611191
1.3257332 0.30241627 0.16696103 10 11 -0.039608888
2.3999629 0.54702079 -0.30223599 3 4 -0.039606582
1.2981631 0.29565051 0.21087368 100 12 -0.03960428
3.0811586 0.70115376 -0.27645802 15 5 -0.039601974
1.3323627 0.30319473 0.26560614 15 13 -0.039599672
1.3226177 0.30049163 0.31313187 52 14 -0.039595064
1.3143532 0.29837278 -0.023525843 29 7 -0.039592758
3.0972846 0.70254958 0.85099703 57 15 -0.039590456
1.0383672 0.23419687 -0.2852186 6 0 -0.039569721
1.3284757 0.29938534 0.023770178 25 8 -0.039567415
1.2053217 0.27140969 -0.28523794 3 1 -0.039565112
1.3191674 0.29680315 0.070862897 100 9 -0.039562806
1.4671758 0.33010396 -0.29231939 2 2 -0.039560504
1.3237782 0.29759848 0.11870612 14 10 -0.039558198
1.8001459 0.40435976 -0.29221961 2 3 -0.039555896
1.3112856 0.2943086 0.16501111 11 11 -0.03955359
3.0604315 0.68633235 -0.38510716 3 4 -0.039551288
1.3030424 0.29198077 0.21149944 100 12 -0.039548982
3.093188 0.69310981 -0.27732956 15 5 -0.03954668
1.3314973 0.29811281 0.26522452 61 13 -0.039544374
1.3293641 0.29714796 0.31448159 93 14 -0.039539766
1.3192902 0.29465443 -0.023595655 29 7 -0.039537463
3.10726 0.69341755 0.85306764 58 15 -0.039535157
1.0580382 0.23475519 -0.29039499 6 0 -0.039514422
1.3256081 0.29388025 0.023700368 19 8 -0.03951212
1.2100668 0.26804444 -0.28613773 3 1 -0.039509814
1.3065448 0.2891756 0.070130184 100 9 -0.039507512
1.4798203 0.32752642 -0.2946091 2 2 -0.039505206
1.3325905 0.2946963 0.11940337 12 10 -0.039502904
1.8054039 0.39892727 -0.29284537 2 3 -0.039500598
1.3142433 0.29015782 0.16525485 12 11 -0.039498296
2.4231081 0.53452879 -0.30467337 3 4 -0.03949599
1.31177 0.28913155 0.2127509 100 12 -0.039493687
3.0897512 0.68102235 -0.27680662 14 5 -0.039491381
1.3286949 0.29261896 0.26446128 93 13 -0.039489079
1.3189734 0.28999528 0.31178215 100 14 -0.039484471
1.3261698 0.2913349 -0.023700368 30 7 -0.039482169
3.1134355 0.68339443 0.85410291 58 15 -0.039479863
1.0513016 0.22941275 -0.28832445 6 0 -0.039459128
1.3324872 0.29052949 0.023805084 17 8 -0.039456822
1.2186115 0.26547778 -0.28793734 3 1 -0.03945452
1.3074964 0.28484163 0.070130184 100 9 -0.039452214
1.4771179 0.32152337 -0.29384586 2 2 -0.039449912
1.3375047 0.29089004 0.11975199 14 10 -0.039447606
1.7874823 0.38842764 -0.28971666 2 3 -0.039445303
1.319128 0.28641051 0.16574231 12 11 -0.039442997
3.0418689 0.65989953 -0.3821823 3 4 -0.039440695
1.3049996 0.28310511 0.21149944 82 12 -0.039438389
3.107687 0.67361015 -0.27820113 14 5 -0.039436087
1.3220333 0.28631657 0.2629348 93 13 -0.039433785
1.3142635 0.28415427 0.31043246 99 14 -0.039429177
1.3193103 0.28524548 -0.023560748 30 7 -0.039426871
3.1119084 0.6722495 0.85306764 60 15 -0.039424568
1.0520958 0.22574234 -0.28832445 6 0 -0.03940383
1.3295329 0.28527045 0.023735272 20 8 -0.039401527
1.2118634 0.25980094 -0.28613773 3 1 -0.039399222
1.3084829 0.28027552 0.070130184 100 9 -0.039396919
1.4551936 0.31143591 -0.28926644 2 2 -0.039394613
1.3346153 0.28538591 0.11940337 14 10 -0.039392311
1.792624 0.38332364 -0.29034239 2 3 -0.039390005
1.3278356 0.28369382 0.16671728 20 11 -0.039387703
2.457752 0.52465463 -0.30857319 3 4 -0.039385401
1.300184 0.27731153 0.21056081 15 12 -0.039383095
3.1080709 0.66234207 -0.27802682 15 5 -0.039380793
1.3325762 0.28397718 0.2648429 95 13 -0.039378487
1.3209168 0.28101057 0.31178215 95 14 -0.039373878
1.3105181 0.27855933 -0.023386225 25 7 -0.039371576
3.1142354 0.66138494 0.85306764 58 15 -0.03936927
1.0528387 0.22225194 -0.28832445 6 0 -0.039348535
1.3266073 0.27980205 0.023665464 23 8 -0.039346229
1.2242042 0.25797987 -0.28883713 3 1 -0.039343927
1.3094052 0.27593455 0.070130184 100 9 -0.039341621
1.4831145 0.31227118 -0.2946091 2 2 -0.039339319
1.3219063 0.27808774 0.11818319 16 10 -0.039337017
1.8055501 0.37950131 -0.29221961 1 3 -0.039334711
1.3365885 0.28068927 0.16769223 67 11 -0.039332408
2.4090559 0.50547302 -0.30223599 3 4 -0.039330103
1.3010964 0.27299869 0.21056081 9 12 -0.0393278
3.1161003 0.65325719 -0.27854973 19 5 -0.039325494
1.3277947 0.27811676 0.26369804 100 13 -0.039323192
1.3276122 0.27759418 0.31313187 92 14 -0.039318584
1.3153496 0.27503017 -0.023456035 31 7 -0.039316278
3.1088476 0.64947301 0.85099703 58 15 -0.039313976
1.0498248 0.21779035 -0.28728914 6 0 -0.039293241
1.3216538 0.27418235 0.023560748 22 8 -0.039290935
1.2250527 0.25391969 -0.28883713 3 1 -0.039288633
1.3220948 0.27379322 0.070758224 100 9 -0.039286327
1.4957306 0.30947855 -0.29689881 2 2 -0.039284024
1.3423803 0.27750486 0.1199263 52 10 -0.039281718
1.7410263 0.35991535 -0.28158206 1 3 -0.039279416
1.3258475 0.27384651 0.1662298 95 11 -0.03927711
2.4496017 0.50550479 -0.30711079 3 4 -0.039274808
1.3136497 0.27084839 0.21243803 9 12 -0.039272502
3.1007988 0.63876033 -0.27698094 20 5 -0.0392702
1.3210181 0.27212793 0.26217157 100 13 -0.039267894
1.3247077 0.27240539 0.31223205 92 14 -0.039263286
1.3300128 0.27325502 -0.023700368 34 7 -0.039260983
3.1129885 0.63900477 0.8515147 63 15 -0.039258678
1.0618986 0.21662489 -0.29039499 6 0 -0.039237943
1.3343593 0.27196437 0.023770178 24 8 -0.03923564
1.2221125 0.24886389 -0.28793734 3 1 -0.039233334
1.3073853 0.2659907 0.069920845 100 9 -0.039231032
1.4890532 0.30295148 -0.29537234 2 2 -0.039228726
1.3452456 0.27344897 0.12010061 100 10 -0.039226424
1.7655025 0.35855404 -0.28533649 2 3 -0.039224118
1.3229046 0.26842692 0.16574231 94 11 -0.039221816
3.0622437 0.62079501 -0.38364473 3 4 -0.03921951
1.3281395 0.26900649 0.21462812 9 12 -0.039217208
3.1224275 0.63242847 -0.27872407 21 5 -0.039214902
1.3258084 0.26829347 0.2629348 100 13 -0.039212599
1.3237404 0.26739404 0.31178215 100 14 -0.039207991
1.3211578 0.26663241 -0.023525843 37 7 -0.039205685
3.1133063 0.62775183 0.85099703 58 15 -0.039203383
1.0664365 0.21367614 -0.29143026 6 0 -0.039182648
1.3333397 0.26691204 0.023735272 28 8 -0.039180342
1.2306175 0.2461248 -0.28973696 3 1 -0.03917804
1.3043886 0.26064301 0.069711499 72 9 -0.039175734
1.4862512 0.29698282 -0.2946091 2 2 -0.039173432
1.3364227 0.26680154 0.11922905 100 10 -0.039171126
1.7938644 0.3577981 -0.28971666 2 3 -0.039168824
1.3238335 0.26380777 0.16574231 100 11 -0.039166518
2.4297082 0.48374084 -0.3041859 3 4 -0.039164215
1.3096964 0.26051468 0.21149944 9 12 -0.039161909
3.1382949 0.62424535 -0.27994424 23 5 -0.039159607
1.3267367 0.26366419 0.2629348 99 13 -0.039157301
1.3208427 0.26201299 0.31088236 100 14 -0.039152697
1.3161957 0.26085308 -0.023421129 39 7 -0.039150391
3.1211634 0.61800838 0.85254997 63 15 -0.039148089
1.0463253 0.20584992 -0.28573623 6 0 -0.03912735
1.3362255 0.26264152 0.023770178 31 8 -0.039125048
1.2085224 0.23732178 -0.28433815 3 1 -0.039122742
1.3111702 0.25724146 0.070025519 34 9 -0.039120439
1.4795728 0.29028076 -0.29308262 2 2 -0.039118133
1.3236597 0.2594519 0.11800887 100 10 -0.039115831
1.8299963 0.35836783 -0.29534832 2 3 -0.039113525
1.3227983 0.25880361 0.16549858 94 11 -0.039111223
2.3573499 0.46078503 -0.29492384 3 4 -0.039108917
1.3086588 0.25556302 0.21118654 9 12 -0.039106615
3.1169891 0.60870504 -0.27785251 21 5 -0.039104313
1.3430645 0.26203865 0.26598775 99 13 -0.039102007
1.3217492 0.25740108 0.31088236 95 14 -0.039097399
1.3131727 0.25549299 -0.023351319 34 7 -0.039095096
3.1138201 0.60526586 0.84996176 57 15 -0.03909279
1.0394504 0.20073083 -0.28366569 5 0 -0.039072055
1.3253531 0.25570294 0.023560748 66 8 -0.039069749
1.2284786 0.23679039 -0.28883713 3 1 -0.039067447
1.3199052 0.2541734 0.070444204 31 9 -0.039065141
1.4959998 0.28808385 -0.29613557 2 2 -0.039062839
1.3206441 0.25407732 0.11766025 100 10 -0.039060537
1.8234766 0.3504867 -0.29409683 2 3 -0.039058231
1.3334409 0.25605598 0.16671728 100 11 -0.039055929
2.4369252 0.46751451 -0.30467337 3 4 -0.039053623
1.3114831 0.25136554 0.21149944 10 12 -0.03905132
3.1249652 0.59894681 -0.27837545 22 5 -0.039049014
1.3324019 0.25513321 0.26369804 100 13 -0.039046712
1.3207256 0.25242019 0.31043246 100 14 -0.039042104
1.3219134 0.25240743 -0.023490939 33 7 -0.039039798
3.1083231 0.59294558 0.84789127 58 15 -0.039037496
1.047737 0.19854015 -0.28573623 5 0 -0.039016757
1.3203434 0.24995883 0.023456035 100 8 -0.039014455
1.2331272 0.23322533 -0.28973696 3 1 -0.039012153
1.3247093 0.25030643 0.070653543 34 9 -0.039009847
1.4816121 0.27968574 -0.29308262 2 2 -0.039007545
1.3293543 0.25094384 0.11835749 100 10 -0.039005239
1.8246889 0.34411898 -0.29409683 2 3 -0.039002936
1.3245728 0.24956243 0.16549858 92 11 -0.03900063
2.4190342 0.45533249 -0.30223599 3 4 -0.038998328
1.3240006 0.24897613 0.21337664 10 12 -0.038996022
3.1310558 0.58822411 -0.27872407 22 5 -0.03899372
1.3217505 0.24807537 0.26140836 100 13 -0.038991414
1.3330909 0.24996297 0.31313187 92 14 -0.038986806
1.3385104 0.25073737 -0.023770178 58 7 -0.038984504
3.114172 0.58280182 0.84892654 58 15 -0.038982198
1.0598538 0.19681519 -0.28884208 5 0 -0.038961463
1.3310813 0.24694192 0.023630559 100 8 -0.03895916
1.2263094 0.22728328 -0.28793734 3 1 -0.038956854
1.3216901 0.24472249 0.070444204 42 9 -0.038954552
1.4980712 0.27711061 -0.29613557 2 2 -0.038952246
1.3381016 0.24751973 0.11905474 100 10 -0.038949944
1.810398 0.3345575 -0.29159388 2 3 -0.038947638
1.3137659 0.24254391 0.16403615 88 11 -0.038945336
2.4050694 0.44358337 -0.30028611 3 4 -0.03894303
1.3249042 0.24412203 0.21337664 10 12 -0.038940728
3.1331909 0.57674348 -0.27872407 22 5 -0.038938422
1.3265126 0.24393971 0.26217157 100 13 -0.03893612
1.3244148 0.24331433 0.31088236 100 14 -0.038931511
1.3453208 0.24691238 -0.023874892 100 7 -0.038929205
3.1200871 0.57208133 0.84996176 57 15 -0.038926903
1.0643694 0.19362055 -0.28987733 5 0 -0.038906168
1.3260751 0.24098927 0.023525843 100 8 -0.038903862
1.2386385 0.22487542 -0.29063675 3 1 -0.03890156
1.3068153 0.23725292 0.069606826 52 9 -0.038899254
1.4758487 0.26767498 -0.29155618 2 2 -0.038896952
1.3350791 0.24190354 0.11870612 100 10 -0.038894646
1.8310499 0.3314378 -0.29472256 2 3 -0.038892344
1.3263665 0.23984614 0.16549858 97 11 -0.038890038
2.4203532 0.43723616 -0.30199227 3 4 -0.038887735
1.3238044 0.23914491 0.21306378 10 12 -0.03888543
3.1469491 0.56792688 -0.27976993 22 5 -0.038883127
1.3273561 0.23930748 0.26217157 100 13 -0.038880821
1.3214617 0.23776856 0.30998254 100 14 -0.038876213
1.3186213 0.23725748 -0.023386225 100 7 -0.038873911
3.1334736 0.56323653 0.85306764 60 15 -0.038871609
1.0650387 0.18990426 -0.28987733 5 0 -0.03885087
1.3367101 0.23834527 0.023700368 100 8 -0.038848568
1.2201921 0.2173495 -0.28613773 3 1 -0.038846262
1.3135345 0.23373985 0.069920845 48 9 -0.03884396
1.4961034 0.26595813 -0.29537234 3 2 -0.038841654
1.3359153 0.23724142 0.11870612 100 10 -0.038839351
1.8593681 0.3301999 -0.29910272 2 3 -0.038837045
1.3271546 0.23544607 0.16549858 86 11 -0.038834743
2.4002888 0.42539632 -0.29931113 3 4 -0.038832437
1.3168505 0.23314463 0.2118123 10 12 -0.038830135
3.1449888 0.55624366 -0.2794213 25 5 -0.038827829
1.3358754 0.23627184 0.26369804 100 13 -0.038825527
1.3280002 0.23440158 0.31133226 81 14 -0.038820919
1.3214109 0.2330001 -0.023421129 100 7 -0.038818616
3.1278102 0.55095536 0.85099703 58 15 -0.03881631
1.0599538 0.18537322 -0.28832445 6 0 -0.038795575
1.3296546 0.23230085 0.023560748 100 8 -0.03879327
1.2363012 0.21576896 -0.28973696 3 1 -0.038790967
1.3241802 0.23086882 0.070444204 51 9 -0.038788661
1.4892408 0.25964686 -0.29384586 3 2 -0.038786359
1.3249177 0.2307585 0.11766025 100 10 -0.038784053
1.8371559 0.31964374 -0.29534832 2 3 -0.038781751
1.3357912 0.23217262 0.16647354 94 11 -0.038779449
2.4565225 0.42652297 -0.3061358 3 4 -0.038777143
1.327388 0.23023412 0.21337664 10 12 -0.038774841
3.1428897 0.54513109 -0.27907267 24 5 -0.038772535
1.3270197 0.22993234 0.26178995 92 13 -0.038770232
1.318275 0.22770628 -0.023351319 100 7 -0.038763318
3.1220996 0.53871918 0.84892654 57 15 -0.038761016
1.0586903 0.1813457 -0.28780681 5 0 -0.038740277
1.3206019 0.22597264 0.023386225 100 8 -0.038737975
1.2293633 0.21013905 -0.28793734 3 1 -0.038735673
1.3230094 0.22590865 0.070339531 48 9 -0.038733367
1.5056201 0.25709009 -0.29689881 2 2 -0.038731065
1.3335712 0.22747195 0.11835749 100 10 -0.038728759
1.7954195 0.30592948 -0.2884652 2 3 -0.038726456
1.3248521 0.22550949 0.16501111 88 11 -0.038724151
3.0646677 0.5211001 -0.38169482 3 4 -0.038721848
1.3223411 0.22460715 0.21243803 10 12 -0.038719542
3.1447732 0.53415763 -0.27907267 24 5 -0.03871724
1.323943 0.22464156 0.26102671 25 13 -0.038714934
1.3219186 0.2238234 0.30953264 7 14 -0.038710326
1.3190619 0.2231029 -0.023351319 100 7 -0.038708024
3.1277709 0.5284605 0.84996176 57 15 -0.038705718
1.068843 0.17924687 -0.29039499 6 0 -0.038684983
