# .PCD v0.7 - Point Cloud Data file format
VERSION 0.7
FIELDS x y z intensity ring time
SIZE 4 4 4 4 2 4
TYPE F F F F U F
COUNT 1 1 1 1 1 1
WIDTH 949
HEIGHT 1
VIEWPOINT 0 0 0 1 0 0 0
POINTS 949
DATA ascii
0.87823361 -1.9818465 -0.18965089 32 5 -0.02849872
4.1129627 -9.2858038 1.97411 87 13 -0.028496416
4.1053629 -9.2773857 2.3421905 100 14 -0.028491808
0.86954957 -1.9659544 -0.037522674 36 7 -0.028489504
4.0814142 -9.2319765 2.7046592 38 15 -0.0284872
0.47205737 -1.07131 -0.3136887 3 0 -0.028466465
0.86243045 -1.9581673 0.037348151 8 8 -0.028464161
0.56060421 -1.2734671 -0.32123011 3 1 -0.028461857
0.86069673 -1.9560822 0.11199896 7 9 -0.028459553
0.68869466 -1.5651777 -0.3323893 4 2 -0.028457249
0.86868519 -1.9751723 0.18877934 5 10 -0.028454944
0.86251563 -1.9620734 -0.33946282 5 3 -0.02845264
0.86721224 -1.9736923 0.26470023 5 11 -0.028450336
0.86367482 -1.9665734 -0.26372528 7 4 -0.028448032
0.85831231 -1.9552898 0.33821136 41 12 -0.028445728
0.87131029 -1.9849 -0.18965089 7 5 -0.028443424
4.076581 -9.2911148 1.9722018 82 13 -0.02844112
4.0666933 -9.2773829 2.3385913 96 14 -0.028436512
0.84903949 -1.9378402 -0.036929294 6 7 -0.028434208
4.0778365 -9.3116417 2.7238116 95 15 -0.028431904
0.46831501 -1.0729513 -0.3136887 3 0 -0.028411169
4.030067 -9.2376423 0.17592026 36 8 -0.028408865
0.5592714 -1.2825613 -0.32302973 3 1 -0.02840656
4.0227356 -9.2296219 0.52765119 47 9 -0.028404256
0.68165827 -1.5639725 -0.33162606 3 2 -0.028401952
4.0288258 -9.248004 0.88253903 97 10 -0.028399648
0.85723865 -1.9686944 -0.34008855 3 3 -0.028397344
4.0354128 -9.2719584 1.241605 100 11 -0.02839504
0.85838866 -1.9732169 -0.26421279 2 4 -0.028392736
0.84990638 -1.9546508 0.3375856 15 12 -0.028390432
0.87708771 -2.0171635 -0.19243988 1 5 -0.028388128
4.0347323 -9.2836819 1.9676224 78 13 -0.028385824
4.032733 -9.2879457 2.3376913 96 14 -0.028381215
3.9995868 -9.216011 -0.17536178 100 7 -0.028378911
4.0406961 -9.3151855 2.7207057 100 15 -0.028376609
0.45996729 -1.06394 -0.31058288 3 0 -0.028355872
3.9922459 -9.2388039 0.17567593 93 8 -0.028353568
0.55015481 -1.2737716 -0.32033029 3 1 -0.028351264
3.9889085 -9.2399397 0.5274418 76 9 -0.02834896
0.6793071 -1.5735525 -0.33315253 3 2 -0.028346656
4.0028348 -9.2766447 0.88393348 100 10 -0.028344352
0.84957933 -1.969861 -0.33977571 3 3 -0.028342048
4.0006638 -9.2805195 1.2408737 100 11 -0.028339744
1.1609877 -2.694488 -0.36024579 1 4 -0.02833744
0.84385973 -1.9594197 0.33789849 15 12 -0.028335135
3.99454 -9.2796755 1.9638064 76 13 -0.028330529
3.9972079 -9.2948065 2.3358917 100 14 -0.028325921
3.966604 -9.2280788 -0.17532688 100 7 -0.028323617
3.9982419 -9.306159 2.7139766 99 15 -0.028321313
0.46385467 -1.0832982 -0.31575924 3 0 -0.028300576
3.9544637 -9.2398138 0.17543158 90 8 -0.028298272
0.54417229 -1.2721009 -0.3194305 3 1 -0.028295968
3.9534914 -9.2464628 0.52702314 94 9 -0.028293664
0.67766958 -1.58494 -0.3350606 3 2 -0.02829136
3.9618165 -9.2704086 0.88201612 97 10 -0.028289055
0.83959413 -1.9655482 -0.33852422 3 3 -0.028286751
3.9604506 -9.2761717 1.2384363 100 11 -0.028284449
1.1593666 -2.7167823 -0.36268318 1 4 -0.028282145
0.84011477 -1.9696217 0.33914998 13 12 -0.028279841
3.9605842 -9.2899504 1.963043 74 13 -0.028275233
3.9647386 -9.3087025 2.3358917 100 14 -0.028270625
3.9296689 -9.2308292 -0.17511745 100 7 -0.02826832
3.9611945 -9.3093929 2.710871 85 15 -0.028266016
0.45554522 -1.0742394 -0.31265342 3 0 -0.02824528
3.9198453 -9.2480373 0.17532688 100 8 -0.028242975
0.53820807 -1.2704041 -0.31853068 3 1 -0.028240671
3.9172978 -9.2510099 0.52649975 94 9 -0.028238367
0.66371238 -1.5674094 -0.33086282 3 2 -0.028236065
3.9263258 -9.2768421 0.88131887 100 10 -0.028233761
0.83580643 -1.9757442 -0.33977571 3 3 -0.028231457
3.9218607 -9.2753124 1.2364866 100 11 -0.028229153
1.1452396 -2.709842 -0.36122078 1 4 -0.028226849
0.83169717 -1.9689027 0.33852422 14 12 -0.028224545
3.9787707 -9.4190683 -0.89456654 7 5 -0.028222241
3.9212582 -9.2874413 1.9596084 72 13 -0.028219936
3.920861 -9.2955503 2.329143 99 14 -0.028215328
3.8950918 -9.2389631 -0.17501274 100 7 -0.028213024
3.9241731 -9.3124828 2.7077651 87 15 -0.02821072
0.46226451 -1.1007595 -0.31990036 3 0 -0.028189985
3.8875408 -9.2616644 0.17532688 100 8 -0.028187681
0.53678608 -1.2794629 -0.32033029 3 1 -0.028185377
3.8803463 -9.2535763 0.52587175 99 9 -0.028183073
0.66658807 -1.5896323 -0.3350606 3 2 -0.028180769
3.8908389 -9.2831411 0.88062155 100 10 -0.028178465
0.82890493 -1.9786496 -0.33977571 2 3 -0.028176161
3.8840942 -9.2761297 1.2347803 100 11 -0.028173856
1.1327078 -2.7064979 -0.36024579 1 4 -0.028171552
0.82100773 -1.962682 0.33695987 11 12 -0.028169248
3.8895733 -9.3028841 1.95999 70 13 -0.02816464
3.8861349 -9.3037863 2.3277936 100 14 -0.028160032
3.8551147 -9.2340488 -0.17466368 100 7 -0.028157728
3.8916435 -9.3261232 2.7077651 87 15 -0.028155424
0.44506741 -1.0702586 -0.31058288 3 0 -0.028134689
3.8505826 -9.2640991 0.17511745 100 8 -0.028132385
0.52783078 -1.2705312 -0.31763089 3 1 -0.028130081
3.844959 -9.2596865 0.52545309 99 9 -0.028127776
0.65200067 -1.5701915 -0.3304812 3 2 -0.028125472
3.8523021 -9.2819443 0.8792271 100 10 -0.028123168
0.82653409 -1.9924786 -0.3416529 2 3 -0.028120864
3.8524518 -9.2914639 1.2350241 100 11 -0.02811856
1.1232533 -2.7104356 -0.36024579 1 4 -0.028116256
0.81188381 -1.9600608 0.33602124 13 12 -0.028113952
3.9129162 -9.4466152 -0.89456654 7 5 -0.028111648
3.8533211 -9.3073339 1.958082 74 13 -0.028109344
3.8514016 -9.3118925 2.3264439 100 14 -0.028104736
3.8182743 -9.2363615 -0.17445426 100 7 -0.028102431
3.8531632 -9.325367 2.7036238 90 15 -0.028100127
0.44427109 -1.0789509 -0.31265342 3 0 -0.028079392
3.8166988 -9.2737846 0.17504764 100 8 -0.028077088
0.53377146 -1.2975971 -0.32392952 3 1 -0.028074784
3.8080549 -9.2619686 0.52482504 94 9 -0.02807248
0.65099478 -1.5833526 -0.33277091 3 2 -0.028070176
3.8191211 -9.2934923 0.87905282 100 10 -0.028067872
0.81957418 -1.9953514 -0.3416529 2 3 -0.028065568
3.8154702 -9.2938366 1.2335616 100 11 -0.028063264
1.1152927 -2.7180126 -0.36073327 1 4 -0.02806096
0.80878502 -1.9720212 0.3375856 12 12 -0.028058656
3.8081498 -9.2898474 1.9515946 68 13 -0.028054047
3.816659 -9.319869 2.325094 100 14 -0.028049441
3.78298 -9.2422314 -0.17431465 100 7 -0.028047137
3.8147361 -9.3244572 2.6994827 90 15 -0.028044833
0.4419606 -1.0840729 -0.3136887 3 0 -0.028024096
3.7775123 -9.2703838 0.17473349 100 8 -0.028021792
0.52041823 -1.2777947 -0.31853068 3 1 -0.028019488
3.7757022 -9.2752047 0.52482504 94 9 -0.028017184
0.64176303 -1.5765235 -0.33086282 3 2 -0.02801488
3.7776463 -9.2846203 0.87696105 100 10 -0.028012576
0.80813932 -1.9872214 -0.33977571 3 3 -0.028010271
3.7777736 -9.2942247 1.2318555 100 11 -0.028007967
1.1087869 -2.7292459 -0.36170825 1 4 -0.028005663
0.80338258 -1.978493 0.33821136 10 12 -0.028003361
3.7988977 -9.3555584 -0.88341063 7 5 -0.028001057
3.7727466 -9.2958069 1.950068 68 13 -0.027998753
3.7819052 -9.3277178 2.3237445 100 14 -0.027994145
3.7491941 -9.2516727 -0.17424482 100 7 -0.027991841
3.7785378 -9.3287621 2.6968944 90 15 -0.027989537
0.43672776 -1.0820262 -0.31265342 3 0 -0.0279688
3.7421379 -9.2760954 0.17459388 100 8 -0.027966496
0.51595449 -1.2796036 -0.31853068 3 1 -0.027964192
3.7373307 -9.2735071 0.52398765 94 9 -0.027961887
0.64359468 -1.5969634 -0.33467901 3 2 -0.027959585
3.7459581 -9.2995987 0.87713534 100 10 -0.027957279
0.79824656 -1.9827003 -0.33852422 3 3 -0.027954977
3.7416024 -9.2981482 1.2306367 100 11 -0.027952673
1.0948087 -2.7220495 -0.36024579 2 4 -0.027950369
0.79352438 -1.9739537 0.33695987 10 12 -0.027948065
3.741739 -9.3125629 1.9508314 68 13 -0.027943457
3.7456934 -9.3318195 2.3214948 100 14 -0.027938848
3.7168756 -9.2647038 -0.17424482 100 7 -0.027936544
3.7437942 -9.3365164 2.6953416 76 15 -0.02793424
0.43581519 -1.0907201 -0.31472397 3 0 -0.027916193
3.7052853 -9.2779589 0.17438444 100 8 -0.027913889
0.51003993 -1.2777771 -0.31763089 3 1 -0.027911585
3.7021151 -9.2747202 0.5233596 99 9 -0.027909281
0.63656116 -1.5955534 -0.33391577 3 2 -0.027906977
3.7090456 -9.3015137 0.87608945 100 10 -0.027904673
0.78985828 -1.9818045 -0.33789849 2 3 -0.027902368
3.706919 -9.3056202 1.2299055 84 11 -0.027900064
1.0735514 -2.6963458 -0.35634598 1 4 -0.02789776
0.78332055 -1.9673982 0.33539551 9 12 -0.027895456
3.7048557 -9.3146229 1.9485416 68 13 -0.02789085
3.6994228 -9.3104286 2.3129468 99 14 -0.027886242
3.6817014 -9.2658281 -0.17403539 100 7 -0.027883938
0.43058422 -1.0886416 -0.3136887 3 0 -0.027860897
3.6759691 -9.2939148 0.17445426 100 8 -0.027858593
0.50579983 -1.2794614 -0.31763089 3 1 -0.027856288
3.6653144 -9.2764425 0.5227316 94 9 -0.027853984
0.63315123 -1.6032436 -0.3350606 3 2 -0.02785168
3.6714351 -9.3014307 0.87486929 100 10 -0.027849376
0.78908408 -1.9991124 -0.34040144 2 3 -0.027847072
3.6745827 -9.314168 1.229418 47 11 -0.02784477
1.0835372 -2.7479055 -0.36268318 1 4 -0.027842466
0.77862144 -1.9756339 0.33633414 9 12 -0.027840162
3.6739466 -9.3268576 1.9485416 65 13 -0.027835554
3.6656756 -9.3153906 2.311147 99 14 -0.027830945
3.6405532 -9.2562923 -0.17361654 100 7 -0.027828641
3.3684711 -8.5688992 2.4670632 70 15 -0.027826337
0.42415351 -1.0828686 -0.31161815 3 0 -0.0278056
3.6340287 -9.2824821 0.17400049 100 8 -0.027803296
0.50843155 -1.2993667 -0.32212991 3 1 -0.027800992
3.632911 -9.2891798 0.5227316 94 9 -0.02779869
0.61925036 -1.5833937 -0.3304812 3 2 -0.027796386
3.6311402 -9.2894316 0.87260324 100 10 -0.027794082
0.78210098 -2.0018544 -0.34040144 2 3 -0.027791778
3.6420484 -9.3269377 1.229418 16 11 -0.027789474
1.0638342 -2.7257814 -0.35927087 1 4 -0.027787169
0.77387398 -1.9838607 0.33727276 9 12 -0.027784865
1.6190027 -4.1503859 -0.38976046 1 5 -0.027782561
3.6342363 -9.3213329 1.9447254 68 13 -0.027780257
3.6310132 -9.3226833 2.3097975 99 14 -0.027775649
3.6074958 -9.2670794 -0.17358163 100 7 -0.027773345
3.3357368 -8.5734034 2.4649925 85 15 -0.027771041
0.42665568 -1.1005535 -0.31627688 4 0 -0.027750306
3.5951011 -9.2783298 0.17368636 100 8 -0.027748002
0.50107771 -1.2938647 -0.32033029 3 1 -0.027745698
3.5975802 -9.2943535 0.52231288 99 9 -0.027743394
0.61655438 -1.5928692 -0.33200768 3 2 -0.027741089
3.5886276 -9.2760353 0.8701629 61 10 -0.027738785
0.77510834 -2.0045724 -0.34040144 2 3 -0.027736481
0.95746845 -2.4774735 0.3261224 1 11 -0.027734177
1.0571741 -2.7368855 -0.36024579 1 4 -0.027731873
0.77192438 -1.9994495 0.33946282 9 12 -0.027729569
3.5974348 -9.3229713 1.9424356 61 13 -0.027724961
3.5991507 -9.3371181 2.3102474 99 14 -0.027720353
3.5715299 -9.2702866 -0.17340712 100 7 -0.027718049
3.3009312 -8.5723753 2.4613693 76 15 -0.027715744
0.41935128 -1.0930178 -0.3136887 4 0 -0.027695009
3.5619764 -9.2889547 0.17365146 100 8 -0.027692705
0.49516356 -1.2919666 -0.3194305 3 1 -0.027690401
3.5579691 -9.2882042 0.52126616 99 9 -0.027688097
0.61169255 -1.596845 -0.3323893 3 2 -0.027685793
3.5633509 -9.3071127 0.87190604 73 10 -0.027683489
0.76245868 -1.9925064 -0.33789849 2 3 -0.027681185
0.95590556 -2.4993417 0.32855979 1 11 -0.027678881
1.0447788 -2.7331421 -0.35927087 1 4 -0.027676577
0.76917058 -2.0132036 0.34134007 9 12 -0.027674273
1.5892617 -4.1618648 -0.38976046 1 5 -0.027671969
3.5648704 -9.3354721 1.9424356 61 13 -0.027669664
3.5588958 -9.3295965 2.3052983 96 14 -0.027665056
3.5370123 -9.277091 -0.1733024 100 7 -0.027662752
0.41945478 -1.1053846 -0.31679454 4 0 -0.027639713
3.5259829 -9.2919846 0.17347692 100 8 -0.027637409
0.49341497 -1.3009754 -0.32123011 3 1 -0.027635105
3.5212789 -9.289362 0.52063817 99 9 -0.027632801
0.60653138 -1.600912 -0.33277091 3 2 -0.027630497
3.5235691 -9.3052053 0.87051159 73 10 -0.027628193
0.76074439 -2.0100675 -0.34040144 2 3 -0.027625889
0.95701283 -2.5286555 0.33197212 1 11 -0.027623584
1.0324225 -2.7293458 -0.35829589 1 4 -0.02762128
0.76213819 -2.0158763 0.34134007 8 12 -0.027618976
3.526468 -9.3374557 1.940146 61 13 -0.027614368
3.5219259 -9.3352852 2.3034987 100 14 -0.027609762
3.4989607 -9.2744131 -0.17302316 100 7 -0.027607458
3.2437308 -8.6024427 2.4634397 29 15 -0.027605154
0.4115192 -1.0959907 -0.3136887 4 0 -0.027584417
3.4947124 -9.3123341 0.17361654 100 8 -0.027582113
0.48453715 -1.2918273 -0.31853068 3 1 -0.027579809
3.4888325 -9.3015966 0.52063817 94 9 -0.027577505
0.5940479 -1.5846362 -0.32895473 3 2 -0.0275752
3.488271 -9.3099842 0.86981428 76 10 -0.027572896
0.75510854 -2.0164108 -0.34102717 2 3 -0.027570592
0.94913 -2.5358641 0.3324596 2 11 -0.027568288
1.0293676 -2.7517037 -0.36073327 1 4 -0.027565986
0.75094432 -2.0074234 0.33946282 8 12 -0.027563682
3.5110748 -9.3907976 -0.87713534 7 5 -0.027561378
3.4931655 -9.3478699 1.9397644 53 13 -0.027559074
3.4893177 -9.3475227 2.3034987 100 14 -0.027554465
3.4623694 -9.2753305 -0.17281373 100 7 -0.027552161
3.4973025 -9.3739061 2.6808479 99 15 -0.027549857
0.40298182 -1.084744 -0.31006524 4 0 -0.02752912
3.4540637 -9.2976274 0.17312786 100 8 -0.027526816
0.48160726 -1.2970809 -0.3194305 3 1 -0.027524512
3.4549515 -9.3099728 0.52042878 99 9 -0.027522208
0.59260923 -1.5977445 -0.33124444 3 2 -0.027519904
3.4509046 -9.3090258 0.86859411 80 10 -0.027517602
0.74361169 -2.0059381 -0.33883709 3 3 -0.027515298
0.96140563 -2.5948408 0.33977175 2 11 -0.027512994
1.0161008 -2.743933 -0.35927087 1 4 -0.02751069
0.75010335 -2.0267055 0.34227866 7 12 -0.027508385
3.4782743 -9.4029961 -0.87713534 7 5 -0.027506081
3.4553373 -9.3409891 1.9359483 53 13 -0.027503777
3.4555988 -9.3517294 2.3016992 100 14 -0.027499169
3.427201 -9.2798557 -0.1726741 100 7 -0.027496865
3.4572022 -9.3661194 2.6751537 99 15 -0.027494561
0.40271613 -1.09514 -0.31265342 4 0 -0.027473824
3.4188285 -9.3021202 0.17298825 100 8 -0.027471522
0.47842035 -1.3024126 -0.32033029 4 1 -0.027469218
3.4196799 -9.314477 0.52001011 94 9 -0.027466914
0.58730775 -1.5997008 -0.33124444 3 2 -0.02746461
3.4193282 -9.3185492 0.86841983 80 10 -0.027462306
0.73796523 -2.0122309 -0.33946282 3 3 -0.027460001
0.96737218 -2.639185 0.34513399 2 11 -0.027457697
1.0024192 -2.7362795 -0.35780841 1 4 -0.027455393
0.75117439 -2.0515709 0.3460331 7 12 -0.027453089
3.4470735 -9.4144793 -0.87713534 7 5 -0.027450785
3.4186614 -9.3419313 1.9336585 42 13 -0.027448481
3.4215968 -9.360075 2.3007994 100 14 -0.027443873
3.3941007 -9.2898836 -0.17263921 100 7 -0.027441569
3.4264753 -9.3835754 2.6767068 100 15 -0.027439265
0.40087214 -1.1019855 -0.31420633 4 0 -0.02741853
3.382237 -9.302722 0.17277883 100 8 -0.027416226
0.47187468 -1.2985801 -0.3189806 4 1 -0.027413921
3.3816895 -9.3113384 0.51917273 99 9 -0.027411617
0.58373058 -1.6072774 -0.3323893 3 2 -0.027409313
3.3881397 -9.3341722 0.86876839 85 10 -0.027407009
0.73565257 -2.0277932 -0.3416529 2 3 -0.027404705
0.96762675 -2.6686728 0.34854636 3 11 -0.027402401
0.99962503 -2.758425 -0.36024579 1 4 -0.027400097
0.74871755 -2.0671816 0.34822315 6 12 -0.027397793
3.3873675 -9.3575001 1.9344217 36 13 -0.027393185
3.3842654 -9.3591328 2.2976501 99 14 -0.027388576
3.3602929 -9.2979145 -0.17256939 100 7 -0.027386272
3.3838549 -9.3682241 2.668942 92 15 -0.027383968
0.39571488 -1.0997427 -0.31317106 4 0 -0.027363233
3.3477135 -9.3088264 0.1726741 96 8 -0.027360929
0.46799818 -1.3020531 -0.3194305 4 1 -0.027358625
3.3451164 -9.3118095 0.51854473 88 9 -0.027356321
0.57612544 -1.6037619 -0.33124444 3 2 -0.027354017
3.3568828 -9.3496923 0.86911702 99 10 -0.027351713
0.72656798 -2.0247712 -0.34071434 3 3 -0.027349409
0.97036821 -2.7056682 0.35293365 7 11 -0.027347105
0.98597163 -2.7506857 -0.35878339 1 4 -0.027344801
0.75348878 -2.103256 0.35385481 6 12 -0.027342496
3.381264 -9.4383144 -0.87713534 7 5 -0.027340192
3.3507133 -9.3581762 1.932132 31 13 -0.027337888
3.3469803 -9.3580456 2.2945008 96 14 -0.027333282
3.3183928 -9.2832251 -0.17208073 100 7 -0.027330978
3.3524327 -9.3836184 2.6699774 90 15 -0.027328674
0.39252144 -1.1029371 -0.3136887 5 0 -0.027307937
3.3165405 -9.3242226 0.17274393 96 8 -0.027305633
0.46540838 -1.3091873 -0.32078022 4 1 -0.027303329
3.3099177 -9.3158998 0.51812601 94 9 -0.027301025
0.5692094 -1.6020634 -0.3304812 3 2 -0.027298721
3.3188922 -9.3463335 0.86772257 100 10 -0.027296416
0.71685314 -2.0198483 -0.33946282 3 3 -0.027294112
0.97219914 -2.7408438 0.35707721 10 11 -0.027291808
0.97636396 -2.7541108 -0.35878339 1 4 -0.027289504
0.75273979 -2.1244929 0.35698348 5 12 -0.0272872
3.3482983 -9.4500599 -0.87713534 7 5 -0.027284898
0.69860083 -1.9727876 0.40680483 16 13 -0.027282594
3.312345 -9.3641586 2.2931509 99 14 -0.027277986
3.2826355 -9.2853251 -0.1719062 100 7 -0.027275681
0.38353801 -1.0897224 -0.3095476 5 0 -0.027252641
3.2806547 -9.3263111 0.17256939 100 8 -0.027250336
0.4588967 -1.3052886 -0.3194305 4 1 -0.027248032
3.2803309 -9.3305931 0.51833534 94 9 -0.027245728
0.56621671 -1.6114496 -0.33200768 3 2 -0.027243424
3.2836065 -9.3503437 0.86702538 100 10 -0.02724112
0.71241522 -2.029794 -0.34071434 3 3 -0.027238818
0.96788251 -2.7592063 0.35902712 8 11 -0.027236514
0.9667443 -2.7575021 -0.35878339 1 4 -0.02723421
0.75614721 -2.1568036 0.36198941 5 12 -0.027231906
3.2823501 -9.3676748 -0.86841983 6 5 -0.027229602
0.68911475 -1.9678025 0.40527833 18 13 -0.027227297
3.2783496 -9.3719854 2.2922513 99 14 -0.027222689
3.2511652 -9.2942715 -0.1718713 100 7 -0.027220385
2.8472986 -8.1442757 2.3117716 16 15 -0.027218081
0.38163692 -1.0965281 -0.31110048 5 0 -0.027197344
3.2451079 -9.3239193 0.17232506 100 8 -0.02719504
0.4558461 -1.3104843 -0.32033029 4 1 -0.027192738
3.2464283 -9.3382149 0.51812601 94 9 -0.027190434
0.55929965 -1.6097071 -0.33124444 3 2 -0.02718813
3.2476804 -9.3523369 0.86615378 100 10 -0.027185826
0.7030881 -2.0246809 -0.33946282 3 3 -0.027183522
0.95807648 -2.7605257 0.35878339 6 11 -0.027181217
0.96019703 -2.7681944 -0.35975835 1 4 -0.027178913
0.75379044 -2.1743612 0.36449236 5 12 -0.027176609
3.2822428 -9.4732046 -0.87713534 7 5 -0.027174305
0.68001443 -1.9626566 0.40375188 18 13 -0.027172001
3.2466166 -9.3809643 2.2918015 100 14 -0.027167393
3.2187033 -9.3055639 -0.1718713 100 7 -0.027165089
2.8188524 -8.1541643 2.3117716 14 15 -0.027162785
0.37988541 -1.1032673 -0.31265342 5 0 -0.02714205
3.2125413 -9.3351898 0.17232506 100 8 -0.027139746
0.44936743 -1.3065392 -0.3189806 4 1 -0.027137442
3.2073202 -9.3306017 0.51707929 94 9 -0.027135137
0.55332041 -1.6096965 -0.33086282 3 2 -0.027132833
3.2166491 -9.3630552 0.86615378 100 10 -0.027130529
0.69729924 -2.0308592 -0.34008855 3 3 -0.027128225
0.94585747 -2.7563424 0.35780841 7 11 -0.027125921
0.95181626 -2.7752845 -0.36024579 1 4 -0.027123617
0.74747652 -2.1807165 0.36511809 5 12 -0.027121313
0.67634082 -1.9743049 0.40565994 20 13 -0.027116705
3.2100656 -9.3811769 2.2891018 100 14 -0.027112097
3.1849082 -9.3129587 -0.17180149 100 7 -0.027109792
2.7903717 -8.1639547 2.3117716 14 15 -0.027107488
0.37727723 -1.1082443 -0.3136887 5 0 -0.027086753
3.1780028 -9.3406668 0.17222033 100 8 -0.027084449
0.44229451 -1.3007199 -0.31718099 4 1 -0.027082145
3.1721611 -9.3341761 0.51666063 94 9 -0.027079841
0.54643488 -1.6079004 -0.33009958 3 2 -0.027077537
3.1820235 -9.3685665 0.86563081 100 10 -0.027075233
0.6940158 -2.0445044 -0.34196579 3 3 -0.027072929
0.94197011 -2.776546 0.36000207 6 11 -0.027070625
0.93702346 -2.7635508 -0.35829589 1 4 -0.027068321
0.74112809 -2.1870542 0.36574382 5 12 -0.027066017
3.1857138 -9.4009781 -0.86841983 6 5 -0.027063712
0.67007458 -1.9785132 0.40604156 21 13 -0.027061408
3.1735535 -9.3812485 2.2864025 100 14 -0.0270568
3.1491768 -9.3145475 -0.17162697 100 7 -0.027054496
2.7612388 -8.1718159 2.311254 16 15 -0.027052194
0.37155771 -1.1040617 -0.31213579 5 0 -0.027031457
3.1441047 -9.3479128 0.17215054 100 8 -0.027029153
0.44271898 -1.3170332 -0.32078022 4 1 -0.027026849
3.1370137 -9.3376198 0.51624191 99 9 -0.027024545
0.53644204 -1.5967708 -0.32742825 3 2 -0.027022241
3.1442294 -9.3645067 0.8642363 100 10 -0.027019937
0.68184757 -2.0319326 -0.33946282 3 3 -0.027017632
0.92911637 -2.770407 0.35878339 5 11 -0.027015328
0.92358589 -2.7555115 -0.35683349 1 4 -0.027013024
0.73474437 -2.1933737 0.36636955 5 12 -0.02701072
0.66316432 -1.9808401 0.40604156 26 13 -0.027006114
3.1407859 -9.3922701 2.2864025 100 14 -0.027001506
3.1153767 -9.3216906 -0.17155716 100 7 -0.026999202
2.7302494 -8.1740751 2.3091838 16 15 -0.026996898
0.36465272 -1.0961865 -0.3095476 5 0 -0.026976161
3.1089315 -9.3512411 0.17201093 100 8 -0.026973857
0.43627554 -1.3130225 -0.3194305 4 1 -0.026971553
3.1031427 -9.3447218 0.51603258 94 9 -0.026969248
0.52962774 -1.594907 -0.32666501 3 2 -0.026966944
3.1077561 -9.3640795 0.86319047 100 10 -0.02696464
0.6728847 -2.0286753 -0.33852422 2 3 -0.026962336
0.92068952 -2.7774014 0.35927087 5 11 -0.026960034
0.92145312 -2.7813311 -0.35975835 1 4 -0.02695773
0.72832513 -2.1996758 0.3669953 5 12 -0.026955426
3.1112375 -9.3965101 -0.86597949 6 5 -0.026953122
0.65254539 -1.9719597 0.40375188 28 13 -0.026950818
3.106148 -9.397625 2.285053 100 14 -0.026946209
3.0790553 -9.3211155 -0.17134774 100 7 -0.026943905
2.6992772 -8.1762171 2.3071132 16 15 -0.026941601
0.36142761 -1.0992879 -0.31006524 5 0 -0.026920864
3.072525 -9.3506384 0.17180149 100 8 -0.02691856
0.43047348 -1.3108344 -0.31853068 3 1 -0.026916256
3.0692585 -9.3517017 0.51582325 99 9 -0.026913952
0.53140378 -1.6191304 -0.33124444 3 2 -0.02691165
3.0762925 -9.3786573 0.8635391 100 10 -0.026909346
0.66395336 -2.0253806 -0.3375856 3 3 -0.026907042
0.90851653 -2.7730529 0.35829589 5 11 -0.026904738
0.91544533 -2.7958498 -0.36122078 1 4 -0.026902433
0.72555745 -2.2172241 0.36949828 6 12 -0.026900129
0.64443725 -1.9704936 0.40298861 32 13 -0.026895521
3.0690904 -9.395443 2.2819035 99 14 -0.026890913
3.0464995 -9.3318071 -0.17134774 100 7 -0.026888609
2.6749146 -8.1984463 2.3107367 16 15 -0.026886305
0.36236382 -1.1152413 -0.31420633 5 0 -0.02686557
3.032455 -9.3384829 0.17138264 25 8 -0.026863266
0.42348915 -1.3049148 -0.3167311 3 1 -0.026860962
3.0347474 -9.3566589 0.51550919 35 9 -0.026858658
0.52696007 -1.6247106 -0.33200768 3 2 -0.026856354
3.0429213 -9.3874426 0.86336476 28 10 -0.026854049
0.65870601 -2.0333235 -0.33852422 3 3 -0.026851745
0.89883149 -2.7762072 0.35829589 5 11 -0.026849441
0.90323579 -2.7914734 -0.36024579 1 4 -0.026847137
0.72145998 -2.2310205 0.37137547 6 12 -0.026844833
0.63997012 -1.9802035 0.40451509 37 13 -0.026840225
3.0284915 -9.3819895 2.2760546 100 14 -0.026835617
2.6445029 -8.2022171 2.3091838 16 15 -0.026831008
0.35728765 -1.1128205 -0.31317106 5 0 -0.026810274
1.074688 -3.3492687 0.061397567 2 8 -0.026807969
0.41833627 -1.3045294 -0.31628117 4 1 -0.026805665
1.1087844 -3.4596808 0.19039823 1 9 -0.026803361
0.51649231 -1.6115834 -0.32895473 3 2 -0.026801057
1.0756991 -3.3584642 0.30853131 1 10 -0.026798753
0.6479907 -2.0243225 -0.33664703 2 3 -0.026796449
0.89276421 -2.7906718 0.35975835 4 11 -0.026794145
0.8934862 -2.7946093 -0.36024579 1 4 -0.026791841
0.71246552 -2.2297618 0.37074974 6 12 -0.026789537
1.0751735 -3.364908 -0.30905426 12 5 -0.026787233
0.63185954 -1.978685 0.40375188 36 13 -0.026784929
2.9957247 -9.3925037 2.2760546 100 14 -0.02678032
1.0597537 -3.3246527 -0.060908899 16 7 -0.026778016
2.6170273 -8.2150803 2.310219 16 15 -0.026775712
0.35456926 -1.1177438 -0.31420633 5 0 -0.026754977
1.0557384 -3.3301256 0.060978711 7 8 -0.026752673
0.41495737 -1.3096973 -0.31718099 4 1 -0.026750369
1.0436442 -3.2959707 0.18118709 5 9 -0.026748065
0.51086342 -1.6133765 -0.32895473 3 2 -0.026745761
1.0411273 -3.2900159 0.30190748 10 10 -0.026743457
0.64330333 -2.0341055 -0.33789849 2 3 -0.026741153
0.87942797 -2.7824147 0.35829589 4 11 -0.026738849
0.88372564 -2.7977111 -0.36024579 1 4 -0.026736544
0.69992077 -2.2171652 0.36824676 6 12 -0.02673424
1.0574237 -3.3496408 -0.30731115 12 5 -0.026731936
0.62553942 -1.9827508 0.40413347 38 13 -0.026729632
2.9629192 -9.4029036 2.2760546 100 14 -0.026725026
1.0301222 -3.2711108 -0.059861753 7 7 -0.026722722
2.603415 -8.2720766 2.3236775 16 15 -0.026720418
0.3489323 -1.1134442 -0.31265342 5 0 -0.026699681
1.0267756 -3.2784495 0.059966467 32 8 -0.026697377
0.41271171 -1.3185768 -0.3189806 4 1 -0.026695073
1.0225928 -3.2690947 0.17951234 28 9 -0.026692769
0.50347036 -1.6095287 -0.32780987 3 2 -0.026690464
1.0326089 -3.3031383 0.30277905 23 10 -0.02668816
0.6373769 -2.0401101 -0.33852422 2 3 -0.026685856
0.87207693 -2.793047 0.35927087 4 11 -0.026683552
0.88105047 -2.8235188 -0.36317068 1 4 -0.026681248
0.69452918 -2.2271383 0.36949828 6 12 -0.026678946
1.0308955 -3.3057601 -0.30295336 13 5 -0.026676642
0.61452562 -1.9718019 0.40146214 43 13 -0.026674338
2.5928767 -8.3401461 2.3402419 28 15 -0.026665121
0.34332982 -1.1091191 -0.31110048 5 0 -0.026644384
1.0182803 -3.2915659 0.060140993 22 8 -0.02664208
0.40522829 -1.3107005 -0.3167311 3 1 -0.026639776
1.0182505 -3.2955434 0.18076842 10 9 -0.026637472
0.49958768 -1.6169037 -0.32895473 3 2 -0.02663517
1.0234238 -3.3143373 0.30347627 10 10 -0.026632864
0.63025188 -2.0423224 -0.33852422 2 3 -0.026630562
0.85881191 -2.7846925 0.35780841 4 11 -0.026628258
0.9179644 -2.9783394 -0.38266978 2 4 -0.026625954
0.68965852 -2.2389884 0.37106261 7 12 -0.02662365
1.0175908 -3.3036265 -0.30243042 48 5 -0.026621345
0.60590613 -1.9683057 0.40031728 47 13 -0.026619041
2.542141 -8.2684898 1.9971154 100 14 -0.026614433
1.0025619 -3.2629309 -0.059582517 11 7 -0.026612129
2.5393636 -8.2697363 2.3179834 88 15 -0.026609825
0.34097463 -1.1138867 -0.31213579 5 0 -0.02657032
2.5043349 -8.1861982 0.1494275 52 8 -0.026568016
0.40167829 -1.3138307 -0.31718099 4 1 -0.026565712
2.5030971 -8.1923771 0.44893786 66 9 -0.026563408
0.49680018 -1.6259755 -0.3304812 3 2 -0.026561104
0.61922008 -2.0291774 -0.33602124 2 3 -0.026556496
0.84890109 -2.7835793 0.35732093 4 11 -0.026554191
0.84957302 -2.7875249 -0.35780841 1 4 -0.026551887
0.68434769 -2.2468128 0.3720012 7 12 -0.026549583
1.0083681 -3.3106186 -0.30277905 5 5 -0.026547279
0.60372144 -1.9833468 0.40298861 49 13 -0.026544977
2.5144517 -8.2708435 1.9957658 100 14 -0.026540369
2.4915204 -8.2005577 -0.14960203 96 7 -0.026538065
2.5100031 -8.2665806 2.3148775 96 15 -0.026535761
0.34211543 -1.131713 -0.31679454 5 0 -0.026515024
2.4797933 -8.2082891 0.14967184 100 8 -0.02651272
0.39765307 -1.3170904 -0.31763089 4 1 -0.026510416
2.4750631 -8.2029772 0.44904256 100 9 -0.026508112
0.48658469 -1.6126631 -0.32742825 3 2 -0.026505807
1.0319052 -3.4221523 0.31271479 1 10 -0.026503503
0.61327326 -2.035109 -0.33664703 2 3 -0.026501199
0.84261423 -2.7979302 0.35878339 4 11 -0.026498897
0.84555805 -2.8094823 -0.36024579 1 4 -0.026496593
0.67479372 -2.2435131 0.37106261 6 12 -0.026494289
2.4871361 -8.2690783 -0.75546592 6 5 -0.026491985
0.59622961 -1.9835621 0.40260699 52 13 -0.026489681
2.4754796 -8.2459736 1.9876676 100 14 -0.026485072
2.4611557 -8.2034578 -0.1494973 100 7 -0.026482768
2.4844618 -8.2863951 2.3179834 100 15 -0.026480464
0.33097982 -1.1088355 -0.31006524 5 0 -0.026459727
2.4516962 -8.218811 0.14970674 100 8 -0.026457423
0.3947233 -1.324073 -0.3189806 4 1 -0.026455119
2.4458437 -8.2096519 0.44893786 100 9 -0.026452817
0.48319462 -1.6218779 -0.32895473 3 2 -0.026450513
1.040421 -3.4944773 0.31898999 2 10 -0.026448209
0.61179918 -2.0561712 -0.33977571 2 3 -0.026445905
0.83510548 -2.8084652 0.35975835 4 11 -0.026443601
0.82669896 -2.781971 -0.35634598 1 4 -0.026441297
0.66752088 -2.2477484 0.37137547 7 12 -0.026438992
0.59097749 -1.9912776 0.40375188 54 13 -0.026434384
2.447788 -8.2583017 1.9885672 100 14 -0.026429776
2.4262576 -8.1909094 -0.14911337 100 7 -0.026427472
2.4467478 -8.265379 2.3097014 88 15 -0.026425168
0.32874537 -1.1155432 -0.31161815 5 0 -0.026404433
2.4229929 -8.2273188 0.14970674 100 8 -0.026402129
0.39395046 -1.3385289 -0.32212991 5 1 -0.026399825
2.4171715 -8.2181396 0.44893786 100 9 -0.026397521
0.48251608 -1.640506 -0.3323893 3 2 -0.026395217
1.0641764 -3.6204252 0.33014596 2 10 -0.026392912
0.59960735 -2.0412362 -0.33695987 2 3 -0.026390608
0.82641524 -2.8151727 0.36024579 4 11 -0.026388304
0.81921822 -2.7924592 -0.35732093 1 4 -0.026386
0.6591149 -2.2481694 0.37106261 6 12 -0.026383696
1.3912414 -4.7453732 -0.43264109 2 5 -0.026381392
0.58071113 -1.982024 0.40146214 54 13 -0.026379088
2.4162107 -8.2574434 1.9863179 71 14 -0.02637448
2.3926008 -8.1820536 -0.14879921 28 7 -0.026372176
2.4119203 -8.2534714 2.3040073 66 15 -0.026369872
0.32484952 -1.116684 -0.31161815 5 0 -0.026349137
2.3858848 -8.2069244 0.14918317 49 8 -0.026346833
0.38329533 -1.3193109 -0.31718099 4 1 -0.026344528
2.3884709 -8.2265272 0.44893786 54 9 -0.026342224
0.47404984 -1.6327533 -0.3304812 3 2 -0.02633992
1.1109372 -3.8288598 0.34879729 6 10 -0.026337616
0.59302855 -2.0452142 -0.33727276 3 3 -0.026335312
0.81216377 -2.8027871 0.35829589 4 11 -0.026333008
0.81167436 -2.8029287 -0.35829589 1 4 -0.026330704
0.65345979 -2.2580464 0.37231407 6 12 -0.0263284
1.2029734 -4.1569042 -0.37860456 1 5 -0.026326096
0.57487988 -1.9878109 0.40222538 59 13 -0.026323792
2.3944016 -8.2901659 1.9921664 16 14 -0.026319183
1.3785982 -4.7762666 -0.086773366 34 7 -0.026316879
2.3943398 -8.3008204 2.3148775 18 15 -0.026314575
0.32094955 -1.1178112 -0.31161815 5 0 -0.02629384
0.38029912 -1.3262604 -0.31853068 4 1 -0.026289232
0.46672484 -1.6287363 -0.32933635 3 2 -0.026284624
1.1145692 -3.8920913 0.35420093 6 10 -0.02628232
0.58860344 -2.0567672 -0.33883709 3 3 -0.026280016
0.80019158 -2.7979708 0.35732093 4 11 -0.026277712
0.7997036 -2.7981102 -0.35732093 1 4 -0.026275408
0.64557368 -2.2603137 0.37231407 7 12 -0.026273103
0.56578225 -1.982254 0.40069893 69 13 -0.026268495
2.4471817 -8.5852098 2.0610015 2 14 -0.026263889
2.3639083 -8.298564 -0.15061426 27 7 -0.026261585
2.3843913 -8.3760166 2.3335128 6 15 -0.026259281
0.32020557 -1.1300768 -0.31472397 5 0 -0.026238544
1.3560411 -4.7889552 0.086878076 40 8 -0.02623624
0.3761979 -1.3294551 -0.3189806 4 1 -0.026233936
1.3603275 -4.8104992 0.26199383 18 9 -0.026231632
0.45676303 -1.615242 -0.3262834 3 2 -0.026229328
1.0998929 -3.8921239 0.35385233 4 10 -0.026227023
0.57980973 -2.0531063 -0.33789849 3 3 -0.026224719
0.79581183 -2.8198514 0.35975835 4 11 -0.026222415
0.78777564 -2.7932425 -0.35634598 1 4 -0.026220113
0.63660789 -2.2587507 0.37168834 6 12 -0.026217809
0.55673057 -1.976658 0.39917243 69 13 -0.026213201
2.4995129 -8.8863468 2.1311862 2 14 -0.026208593
2.328975 -8.2855883 -0.15023032 31 7 -0.026206288
2.3567061 -8.3898687 2.3350656 4 15 -0.026203984
0.3139821 -1.1238003 -0.31265342 5 0 -0.026183248
2.3181083 -8.2969408 0.15036993 10 8 -0.026180943
0.37417516 -1.3401449 -0.32123011 4 1 -0.026178639
1.4041827 -5.0326056 0.27382174 17 9 -0.026176335
0.44978514 -1.6131231 -0.32552016 3 2 -0.026174031
1.0947115 -3.9287567 0.35681561 4 10 -0.026171729
0.57016146 -2.0476058 -0.33664703 3 3 -0.026169425
0.78330165 -2.8130505 0.35853964 4 11 -0.026167121
0.78334266 -2.8150997 -0.35878339 1 4 -0.026164817
0.63030744 -2.2666686 0.37262696 7 12 -0.026162513
0.55210853 -1.9881434 0.40108052 74 13 -0.026157904
2.5471258 -9.184639 2.2004712 2 14 -0.026153296
1.8842781 -6.7944875 -0.12307438 18 7 -0.026150992
2.3841586 -8.602829 2.3920057 4 15 -0.026148688
0.30800414 -1.1174399 -0.31058288 5 0 -0.026127951
1.8787894 -6.8209 0.12349322 23 8 -0.026125649
0.36926079 -1.3415073 -0.32123011 4 1 -0.026123345
1.3913767 -5.0548077 0.27476382 20 9 -0.026121041
0.44571379 -1.6203622 -0.32666501 3 2 -0.026118737
1.0751817 -3.9114211 0.35489815 4 10 -0.026116433
0.55987078 -2.0381546 -0.33476979 3 3 -0.026114129
0.77561307 -2.825474 0.35975835 4 11 -0.026111824
0.77301943 -2.8179519 -0.35878339 1 4 -0.02610952
0.62030107 -2.261235 0.37137547 7 12 -0.026107216
0.5436092 -1.9843785 0.39993569 78 13 -0.026102608
2.5520744 -9.3288107 2.2328641 2 14 -0.026098
1.8626604 -6.8087387 -0.12321399 32 7 -0.026095696
2.389776 -8.7415409 2.4282403 6 15 -0.026093392
0.30511534 -1.1222366 -0.31161815 5 0 -0.026072657
1.3084408 -4.8125415 0.087052606 23 8 -0.026070353
0.36072275 -1.3276799 -0.31763089 4 1 -0.026068049
1.3815739 -5.0885453 0.27633387 24 9 -0.026065744
0.44159698 -1.6275924 -0.32780987 3 2 -0.02606344
1.052137 -3.8805375 0.35176057 4 10 -0.026061136
0.54949039 -2.0266542 -0.33257973 3 3 -0.026058832
0.7662394 -2.8280303 0.35975835 4 11 -0.026056528
0.7574448 -2.7975066 -0.3558585 1 4 -0.026054224
0.61653143 -2.278641 0.37387842 7 12 -0.02605192
0.53497612 -1.9785891 0.39840919 71 13 -0.026047312
2.5973225 -9.6194286 2.3003495 2 14 -0.026042704
2.2363505 -8.2882862 -0.14984636 15 7 -0.026040399
2.3602536 -8.753561 2.4292758 4 15 -0.026038095
0.30139229 -1.1232423 -0.31161815 5 0 -0.02601736
1.29008 -4.811285 0.086947888 40 8 -0.026015056
0.35457289 -1.3232839 -0.31628117 4 1 -0.026012752
1.342622 -5.014236 0.27204233 20 9 -0.026010448
0.43619716 -1.6290479 -0.32780987 3 2 -0.026008144
1.0423532 -3.8955534 0.35280645 3 10 -0.02600584
0.54598475 -2.0419183 -0.33476979 3 3 -0.026003536
0.75431299 -2.8230169 0.35878339 4 11 -0.026001232
0.7538206 -2.8231485 -0.35878339 1 4 -0.025998928
0.60806465 -2.2788706 0.37356552 6 12 -0.025996624
0.52907765 -1.9842384 0.39917243 78 13 -0.025992015
2.6259048 -9.8619442 2.3561375 2 14 -0.025987409
1.2530744 -4.7093997 -0.085063025 20 7 -0.025985105
2.3356404 -8.7841511 2.4354875 4 15 -0.025982801
0.29796353 -1.126155 -0.31213579 5 0 -0.025962064
1.2482316 -4.7210288 0.085237555 70 8 -0.02595976
0.35094717 -1.3282819 -0.31718099 4 1 -0.025957456
1.2455741 -4.7176428 0.25571349 57 9 -0.025955152
0.42649883 -1.6153749 -0.32475692 3 2 -0.025952848
1.0358645 -3.9261382 0.35524681 4 10 -0.025950544
0.54439336 -2.0648229 -0.33821136 3 3 -0.025948239
0.74445444 -2.8256328 0.35878339 4 11 -0.025945935
0.74396133 -2.8257625 -0.35878339 1 4 -0.025943631
0.59809577 -2.2733378 0.37231407 6 12 -0.025941327
1.2384301 -4.7072229 -0.42584294 6 5 -0.025939025
0.52214831 -1.9860731 0.39917243 82 13 -0.025936721
2.6538119 -10.108543 2.4128251 2 14 -0.025932113
1.2320615 -4.6963372 -0.084748887 73 7 -0.025929809
2.3049636 -8.7922506 2.4354875 4 15 -0.025927505
0.29598126 -1.1346654 -0.31420633 5 0 -0.025906768
1.2221602 -4.6885915 0.084574364 68 8 -0.025904464
0.34827331 -1.3370421 -0.3189806 4 1 -0.02590216
1.2168331 -4.671495 0.25299203 64 9 -0.025899855
0.42283589 -1.6244535 -0.3262834 3 2 -0.025897551
1.0141287 -3.8988786 0.35245782 3 10 -0.025895247
0.53668541 -2.0647986 -0.33789849 3 3 -0.025892945
0.73857909 -2.8435843 0.36073327 4 11 -0.025890641
0.73409295 -2.8283422 -0.35878339 1 4 -0.025888337
0.58906496 -2.2695725 0.37137547 6 12 -0.025886033
1.2029836 -4.6382313 -0.41921914 6 5 -0.025883729
0.51767492 -1.997386 0.40108052 86 13 -0.025881425
2.6116762 -10.091332 2.4065266 2 14 -0.025876816
1.2049575 -4.6558709 -0.083946079 52 7 -0.025874512
2.270957 -8.7811413 2.430311 4 15 -0.025872208
0.28624555 -1.1132398 -0.30799466 5 0 -0.025851471
1.2041156 -4.6829357 0.084399842 70 8 -0.025849167
0.34626251 -1.3476267 -0.32123011 4 1 -0.025846865
1.2010165 -4.6776495 0.25309673 57 9 -0.025844561
0.41911429 -1.6335263 -0.32780987 3 2 -0.025842257
0.99952352 -3.8985348 0.35210916 3 10 -0.025839953
0.52640146 -2.0531726 -0.33570841 2 3 -0.025837649
0.72717464 -2.8383262 0.35975835 4 11 -0.025835345
0.72766364 -2.8422992 -0.36024579 1 4 -0.02583304
0.58162856 -2.2735288 0.37168834 7 12 -0.025830736
1.1838255 -4.6308203 -0.41817325 4 5 -0.025828432
0.50667262 -1.9819729 0.39764598 71 13 -0.025826128
2.5994048 -10.183019 2.426322 2 14 -0.02582152
1.1911693 -4.6697373 -0.084120601 30 7 -0.025819216
2.2431552 -8.8002462 2.4334168 4 15 -0.025816912
0.28540167 -1.1254183 -0.31110048 5 0 -0.025796177
1.2182175 -4.8072915 0.08656393 74 8 -0.025793873
0.33964279 -1.3412707 -0.3194305 4 1 -0.025791569
0.40887913 -1.6158744 -0.32399368 3 2 -0.02578696
0.99049717 -3.9172809 0.3535037 3 10 -0.025784656
0.51826352 -2.0511675 -0.33508268 2 3 -0.025782352
0.7153185 -2.8331487 0.35878339 4 11 -0.025780048
0.71773791 -2.8448217 -0.36024579 1 4 -0.025777744
0.57658654 -2.2870376 0.37356552 6 12 -0.02577544
0.49927124 -1.9818256 0.39726433 74 13 -0.025770832
2.57145 -10.222268 2.4335206 2 14 -0.025766224
2.0859883 -8.2985373 -0.14935769 28 7 -0.02576392
2.2237179 -8.8529911 2.4458401 4 15 -0.025761615
0.28240818 -1.1301563 -0.31213579 5 0 -0.025740881
1.2009456 -4.8095751 0.086529031 44 8 -0.025738576
0.33684587 -1.3500112 -0.32123011 4 1 -0.025736272
0.41083544 -1.6477709 -0.33009958 3 2 -0.025731664
0.977781 -3.9245811 0.35385233 3 10 -0.02572936
0.51396364 -2.064465 -0.33695987 2 3 -0.025727056
0.70830011 -2.8471863 0.36024579 4 11 -0.025724752
0.69726729 -2.8049281 -0.35488355 2 4 -0.025722448
0.56764728 -2.2852023 0.3729398 7 12 -0.025720144
0.4932965 -1.9873674 0.3980276 86 13 -0.025715536
2.5310633 -10.212266 2.4290214 2 14 -0.025710927
2.0613356 -8.3232374 -0.14967184 42 7 -0.025708623
2.1909449 -8.8531981 2.4437695 4 15 -0.025706321
0.27753797 -1.1273834 -0.31110048 5 0 -0.025685584
1.1831938 -4.8098545 0.086459227 36 8 -0.02568328
0.32980567 -1.3417169 -0.3189806 4 1 -0.025680976
1.3263346 -5.3998652 0.29140663 13 9 -0.025678672
0.40367636 -1.6434751 -0.32895473 3 2 -0.025676368
0.96217543 -3.9202302 0.35315505 3 10 -0.025674064
0.50628358 -2.0643282 -0.33664703 3 3 -0.02567176
0.69835758 -2.8496413 0.36024579 4 11 -0.025669456
0.68133414 -2.782279 -0.35171497 3 4 -0.025667151
0.56107551 -2.2929261 0.37387842 7 12 -0.025664847
0.48682252 -1.9909841 0.39840919 78 13 -0.025660241
2.4926283 -10.20968 2.426322 2 14 -0.025655633
1.9891394 -8.153595 -0.14649549 56 7 -0.025653329
2.1581988 -8.8532839 2.4416988 4 15 -0.025651025
0.2752237 -1.1359031 -0.31317106 5 0 -0.025630288
1.1659265 -4.8120108 0.086424313 44 8 -0.025627984
0.32374448 -1.3371778 -0.31763089 4 1 -0.02562568
1.3295498 -5.4957013 0.29632622 16 9 -0.025623376
0.39903393 -1.6506685 -0.33009958 3 2 -0.025621071
0.95060784 -3.9353504 0.35420093 3 10 -0.025618767
0.50056797 -2.0738506 -0.33789849 3 3 -0.025616463
0.69120044 -2.8636398 0.36170825 4 11 -0.025614161
0.67487627 -2.7981486 -0.35342112 2 4 -0.025611857
0.55167973 -2.2891092 0.3729398 6 12 -0.025609553
0.47998124 -1.994664 0.39879084 74 13 -0.025604945
2.4597437 -10.237696 2.4308212 5 14 -0.025600336
1.9798203 -8.2402067 -0.1479266 44 7 -0.025598032
2.1363013 -8.8983335 2.4520516 4 15 -0.025595728
0.26946348 -1.1293404 -0.31110048 5 0 -0.025574991
1.1450353 -4.8026361 0.086179987 36 8 -0.025572687
0.32109937 -1.3478338 -0.3198804 5 1 -0.025570383
1.3621261 -5.7220354 0.3082588 7 9 -0.025568079
0.39190561 -1.6463217 -0.32895473 3 2 -0.025565777
0.93409872 -3.9270148 0.35315505 3 10 -0.025563473
0.49286923 -2.0736635 -0.3375856 3 3 -0.025561169
0.68069994 -2.8661542 0.36170825 4 11 -0.025558865
0.66828251 -2.8160551 -0.35537103 2 4 -0.025556561
0.54510945 -2.2988043 0.37419128 6 12 -0.025554257
0.4721103 -1.9925065 0.3980276 86 13 -0.025549648
2.4230962 -10.242426 2.4299212 5 14 -0.02554504
1.9670858 -8.3213577 -0.14925298 12 7 -0.025542736
2.1001201 -8.8910627 2.4479105 4 15 -0.025540432
0.26640329 -1.1340356 -0.31213579 5 0 -0.025519697
1.1264359 -4.7988167 0.086040363 36 8 -0.025517393
0.31594771 -1.3470491 -0.3194305 4 1 -0.025515089
1.3549045 -5.7812028 0.31118962 3 9 -0.025512785
0.3866044 -1.6495912 -0.32933635 3 2 -0.025510481
0.91675085 -3.9147327 0.35176057 3 10 -0.025508177
0.48472735 -2.0715246 -0.33695987 3 3 -0.025505872
0.66933548 -2.8627138 0.36097702 4 11 -0.025503568
0.66386813 -2.841567 -0.35829589 1 4 -0.025501264
0.53573424 -2.2949224 0.37325269 6 12 -0.02549896
0.46381456 -1.9884068 0.39688274 78 13 -0.025494352
2.3890953 -10.258414 2.431721 5 14 -0.025489744
1.4077436 -6.0494175 -0.10841435 100 7 -0.02548744
2.0821984 -8.9547892 2.4634397 2 15 -0.025485136
0.26287848 -1.1368407 -0.31265342 5 0 -0.025464401
1.108328 -4.796874 0.085935652 36 8 -0.025462097
0.31080517 -1.3462451 -0.3189806 4 1 -0.025459792
1.3581902 -5.8829684 0.31642324 7 9 -0.025457488
0.38128534 -1.6528435 -0.32971796 3 2 -0.025455184
0.90397513 -3.9217916 0.35210916 3 10 -0.02545288
0.47483352 -2.0616543 -0.33508268 3 3 -0.025450576
0.65800297 -2.8592291 0.36024579 4 11 -0.025448272
0.65127593 -2.8322597 -0.35683349 1 4 -0.025445968
0.52856392 -2.2986112 0.37356552 6 12 -0.025443664
1.4107485 -6.1399493 -0.55117291 3 5 -0.02544136
0.4577494 -1.9938403 0.39764598 82 13 -0.025439056
2.3524022 -10.262892 2.4308212 5 14 -0.025434447
1.3894628 -6.0618486 -0.10855397 53 7 -0.025432143
2.1033823 -9.1838503 2.5245211 4 15 -0.025429839
0.25890854 -1.1377515 -0.31265342 5 0 -0.025409104
1.091971 -4.7985735 0.085900746 32 8 -0.0254068
0.30504301 -1.3415676 -0.31763089 4 1 -0.025404496
1.3066726 -5.751339 0.30909619 3 9 -0.025402192
0.37334019 -1.6445918 -0.32780987 3 2 -0.025399888
0.89997607 -3.9676702 0.35594404 3 10 -0.025397584
0.47017896 -2.0728495 -0.33664703 3 3 -0.02539528
0.64939559 -2.8652673 0.36073327 4 11 -0.025392976
0.6436339 -2.8421481 -0.35780841 1 4 -0.025390672
0.51879317 -2.2927358 0.37231407 7 12 -0.025388367
0.9604767 -4.248138 -0.38104489 1 5 -0.025386063
0.45156819 -1.9972622 0.3980276 97 13 -0.025383759
2.3166394 -10.263033 2.4290214 5 14 -0.025379153
1.8830535 -8.3489761 -0.1493926 60 7 -0.025376849
2.0772583 -9.2175207 2.5317681 4 15 -0.025374545
0.25513428 -1.1386037 -0.31265342 5 0 -0.025353808
1.0756509 -4.8043075 0.085935652 29 8 -0.025351504
0.30163449 -1.3483294 -0.3189806 4 1 -0.0253492
1.2936976 -5.782928 0.3105616 3 9 -0.025346896
0.3661713 -1.6381569 -0.3262834 3 2 -0.025344592
0.88160276 -3.947299 0.35385233 3 10 -0.025342287
0.4607895 -2.0648384 -0.33508268 2 3 -0.025339983
0.64198166 -2.879142 0.36219573 4 11 -0.025337679
0.62593901 -2.8095007 -0.35342112 2 4 -0.025335375
0.51204658 -2.2982996 0.3729398 7 12 -0.025333073
0.93339604 -4.1929564 -0.37581557 1 5 -0.025330769
0.44501963 -2.0007427 0.39840919 90 13 -0.025328465
2.2799568 -10.267252 2.4281218 5 14 -0.025323857
1.8531913 -8.3454132 -0.14921807 60 7 -0.025321553
2.0416589 -9.201726 2.5255563 4 15 -0.025319248
0.24907897 -1.1300546 -0.31006524 5 0 -0.025298512
1.057561 -4.7980838 0.085761122 30 8 -0.025296208
0.29883808 -1.3569349 -0.32078022 4 1 -0.025293903
1.2735034 -5.7874088 0.3105616 3 9 -0.025291599
0.35792151 -1.6279203 -0.32399368 3 2 -0.025289297
0.86525363 -3.9386764 0.35280645 3 10 -0.025286991
0.45648268 -2.0779312 -0.33695987 2 3 -0.025284689
0.62987727 -2.8696213 0.36073327 4 11 -0.025282385
0.62342292 -2.8425853 -0.35732093 2 4 -0.025280081
0.50486654 -2.3039322 0.37356552 7 12 -0.025277777
0.43670285 -1.9945365 0.39688274 88 13 -0.025273168
2.2467275 -10.278563 2.4290214 5 14 -0.02526856
1.8231944 -8.3479242 -0.14914827 64 7 -0.025266256
2.049067 -9.3899908 2.5752497 6 15 -0.025263952
0.24779774 -1.1441764 -0.3136887 5 0 -0.02523613
1.0361695 -4.7884278 0.085516788 28 8 -0.025233826
0.28950757 -1.3390249 -0.31628117 4 1 -0.025231522
1.2892276 -5.9679565 0.31998208 8 9 -0.025229217
0.35609797 -1.6484112 -0.32780987 3 2 -0.025226913
0.85417461 -3.9574013 0.35420093 3 10 -0.025224609
0.44683492 -2.0719447 -0.33570841 2 3 -0.025222305
0.61801773 -2.8681376 0.36024579 4 11 -0.025220001
0.61333919 -2.8488393 -0.35780841 2 4 -0.025217697
0.4976778 -2.3135788 0.37481701 6 12 -0.025215393
0.90504354 -4.2073193 -0.3765128 1 5 -0.025213089
0.42821628 -1.9923598 0.39611951 90 13 -0.025210787
2.2105145 -10.302358 2.4326205 5 14 -0.025206178
1.7911272 -8.3548632 -0.14914827 72 7 -0.025203874
2.1538057 -10.055162 2.7553878 7 15 -0.02520157
0.24380243 -1.1450344 -0.3136887 5 0 -0.025180833
1.0194489 -4.7920156 0.085516788 20 8 -0.025178529
0.28483155 -1.3400273 -0.31628117 4 1 -0.025176225
1.2650689 -5.9567909 0.3191447 7 9 -0.025173921
0.35034192 -1.649644 -0.32780987 3 2 -0.025171617
0.84035587 -3.9603586 0.35420093 3 10 -0.025169313
0.44082877 -2.0792892 -0.33664703 3 3 -0.025167009
0.60923636 -2.8761036 0.36097702 4 11 -0.025164707
0.60092521 -2.8393102 -0.35634598 2 4 -0.025162403
0.49041644 -2.3191669 0.37544277 7 12 -0.025160098
0.88870335 -4.2026558 -0.37581557 1 5 -0.025157794
0.42125899 -1.9938424 0.39611951 90 13 -0.02515549
2.1689098 -10.283316 2.426322 5 14 -0.025150882
1.7590669 -8.3473682 -0.14890394 56 7 -0.025148578
2.121876 -10.077743 2.7595289 7 15 -0.025146274
0.23822115 -1.1383151 -0.31161815 5 0 -0.025125537
0.28174642 -1.3486437 -0.31808078 5 1 -0.025120929
1.25266 -5.9961438 0.3210288 12 9 -0.025118627
0.34297684 -1.6431696 -0.3262834 3 2 -0.025116323
0.83059353 -3.9827724 0.35594404 3 10 -0.025114018
0.43598586 -2.0924182 -0.33852422 3 3 -0.025111714
0.59717047 -2.8684952 0.35975835 4 11 -0.02510941
0.59343559 -2.8530517 -0.35780841 1 4 -0.025107106
0.48191851 -2.3169127 0.37481701 6 12 -0.025104802
0.41589305 -2.0029895 0.39764598 88 13 -0.025100194
2.134583 -10.298457 2.4281218 5 14 -0.025095586
2.0907969 -10.096074 2.7626348 7 15 -0.025090978
0.23502441 -1.1429241 -0.31265342 5 0 -0.025070243
0.75923723 -3.6921718 0.065795571 3 8 -0.025067938
0.27570382 -1.341935 -0.31628117 4 1 -0.025065634
1.2341316 -6.012219 0.32165682 12 9 -0.02506333
0.33802783 -1.6482033 -0.32704663 3 2 -0.025061026
0.81188703 -3.9622257 0.35385233 3 10 -0.025058722
0.42507941 -2.074501 -0.33539551 3 3 -0.025056418
0.59163588 -2.8899076 0.36219573 4 11 -0.025054114
0.58158463 -2.8433347 -0.35634598 2 4 -0.02505181
0.47303718 -2.3147099 0.37419128 6 12 -0.025049506
0.69273454 -3.3927739 -0.30295336 16 5 -0.025047202
0.40924853 -2.0043576 0.39764598 90 13 -0.025044898
2.1004212 -10.305479 2.4281218 5 14 -0.025040289
0.68670851 -3.3722672 -0.060071182 8 7 -0.025037985
2.0516903 -10.084379 2.7574582 7 15 -0.025035681
0.23046735 -1.1399102 -0.31161815 5 0 -0.025014946
0.6849739 -3.3909831 0.060385328 9 8 -0.025012642
0.27333117 -1.3543507 -0.3189806 5 1 -0.025010338
1.2139267 -6.0204053 0.32186615 12 9 -0.025008034
0.33178416 -1.6454661 -0.3262834 3 2 -0.02500573
0.80189091 -3.980521 0.35524681 3 10 -0.025003426
0.424072 -2.1069567 -0.34040144 3 3 -0.025001122
0.58154488 -2.8919551 0.36219573 4 11 -0.024998818
0.57322001 -2.8531325 -0.35732093 2 4 -0.024996514
0.46495414 -2.3163471 0.37419128 6 12 -0.024994209
0.71010351 -3.5376527 -0.31567809 10 5 -0.024991905
0.40070561 -1.9980744 0.39611951 88 13 -0.024989601
2.070554 -10.343322 2.4353201 2 14 -0.024984993
0.67610985 -3.3805268 -0.060175899 22 7 -0.024982689
2.014585 -10.082008 2.7548699 7 15 -0.024980385
0.22723946 -1.1444973 -0.31265342 5 0 -0.02495965
0.67391151 -3.3972762 0.060455136 9 8 -0.024957346
0.26898056 -1.3572081 -0.3194305 5 1 -0.024955042
1.19756 -6.0481167 0.32312223 12 9 -0.024952738
0.32680121 -1.6504658 -0.32704663 4 2 -0.024950434
0.78799176 -3.9832959 0.35524681 3 10 -0.024948129
0.41135228 -2.0812936 -0.33602124 3 3 -0.024945825
0.57144648 -2.8939676 0.36219573 4 11 -0.024943521
0.564794 -2.8629062 -0.35829589 1 4 -0.024941217
0.45724791 -2.3198938 0.37450415 7 12 -0.024938913
0.80370414 -4.0776749 -0.36361378 1 5 -0.024936609
0.39221123 -1.9917556 0.39459303 92 13 -0.024934305
2.0329342 -10.342837 2.4335206 2 14 -0.024929699
1.643809 -8.3708286 -0.14890394 40 7 -0.024927394
1.9812381 -10.098457 2.7574582 7 15 -0.02492509
0.22250381 -1.1414914 -0.31161815 5 0 -0.024904354
0.69530392 -3.5703735 0.063491859 1 8 -0.024902049
0.26275283 -1.3504872 -0.31763089 5 1 -0.024899745
1.1683425 -6.005003 0.32061011 12 9 -0.024897441
0.31879014 -1.6400335 -0.32475692 3 2 -0.024895137
0.77636158 -3.9977577 0.35629267 3 10 -0.024892833
0.40634236 -2.094352 -0.33789849 3 3 -0.024890529
0.55983007 -2.8881493 0.36122078 4 11 -0.024888225
0.55253261 -2.8531671 -0.35683349 2 4 -0.024885923
0.45293236 -2.3388515 0.37731999 6 12 -0.024883619
0.38674664 -2.0008233 0.39611951 90 13 -0.02487901
1.9938649 -10.334563 2.4299212 5 14 -0.024874402
1.6186925 -8.3899765 -0.14914827 92 7 -0.024872098
1.9532249 -10.133426 2.765223 7 15 -0.024869794
0.21996978 -1.1498507 -0.3136887 5 0 -0.024849057
0.94572252 -4.9435868 0.087855421 8 8 -0.024846753
0.2575413 -1.347523 -0.3167311 5 1 -0.024844449
1.1481236 -6.0129685 0.32081944 16 9 -0.024842145
0.31306353 -1.6411363 -0.32475692 3 2 -0.024839841
0.76016396 -3.9886999 0.35524681 3 10 -0.024837539
0.39717606 -2.0840454 -0.33602124 3 3 -0.024835235
0.55099201 -2.8938901 0.36170825 4 11 -0.02483293
0.53713316 -2.8237815 -0.35293365 2 4 -0.024830626
0.44107777 -2.321012 0.37419128 6 12 -0.024828322
0.37974325 -2.0001657 0.39573789 86 13 -0.024823714
1.9617609 -10.352606 2.4326205 5 14 -0.024819106
