# .PCD v0.7 - Point Cloud Data file format
VERSION 0.7
FIELDS x y z intensity ring time
SIZE 4 4 4 4 2 4
TYPE F F F F U F
COUNT 1 1 1 1 1 1
WIDTH 948
HEIGHT 1
VIEWPOINT 0 0 0 1 0 0 0
POINTS 948
DATA ascii
3.3074408 -2.0117462 0.33868721 59 10 -0.052118532
1.7685208 -1.0761232 -0.3278867 2 3 -0.05211623
3.3048015 -2.0117216 0.47504675 48 11 -0.052113924
2.4109433 -1.4681827 -0.34659645 3 4 -0.052111622
3.2929888 -2.0061066 0.61072022 47 12 -0.052109316
3.3009312 -2.0109451 -0.33816427 48 5 -0.052107014
3.304285 -2.0137792 0.75216907 47 13 -0.052104708
3.1743457 -1.9361082 0.85841322 63 14 -0.0521001
3.2928486 -2.0091743 -0.067331389 47 7 -0.052097797
3.0340378 -1.8519845 0.95245409 63 15 -0.052095495
0.98697394 -0.6041078 -0.31006524 5 0 -0.052074756
3.3033311 -2.0226982 0.067610621 57 8 -0.052072454
1.151594 -0.70542127 -0.31178215 5 1 -0.052070148
3.2934926 -2.0182548 0.20243551 53 9 -0.052067846
1.4211831 -0.87090212 -0.32399368 2 2 -0.05206554
3.3173845 -2.0336921 0.34043032 57 10 -0.052063238
1.7916965 -1.0988134 -0.33289257 2 3 -0.052060932
3.3045273 -2.0273974 0.47602168 48 11 -0.05205863
2.4024198 -1.4745128 -0.34610897 3 4 -0.052056324
3.3061666 -2.0299923 0.61447465 47 12 -0.052054022
3.3057768 -2.029753 -0.33938447 49 5 -0.052051716
3.3106186 -2.0335214 0.75522202 50 13 -0.052049413
3.1609271 -1.9430947 0.85661358 60 14 -0.052044805
3.2994418 -2.0290365 -0.067610621 45 7 -0.052042503
3.0374272 -1.8686377 0.95555997 61 15 -0.052040197
0.98485923 -0.60754931 -0.31006524 5 0 -0.052019462
3.3030574 -2.0384173 0.067750245 57 8 -0.052017156
1.1574156 -0.71455532 -0.31403166 4 1 -0.052014854
3.2830288 -2.0276399 0.20222615 50 9 -0.052012548
1.4113009 -0.87197757 -0.32246721 2 2 -0.052010246
3.3204353 -2.0515435 0.3414762 55 10 -0.05200794
1.7979319 -1.1112925 -0.33476979 2 3 -0.052005637
3.3075607 -2.0451841 0.47748414 47 11 -0.052003335
2.3769999 -1.4703583 -0.34318411 3 4 -0.052001029
3.2957013 -2.0394418 0.61384892 47 12 -0.051998727
3.3152559 -2.0523429 -0.34112757 49 5 -0.051996421
3.304812 -2.0466754 0.75560367 46 13 -0.051994119
3.1508121 -1.9520639 0.85571378 55 14 -0.051989511
3.2991381 -2.044755 -0.067750245 45 7 -0.051987205
3.0341697 -1.8812648 0.95659518 56 15 -0.051984902
0.96458083 -0.59993166 -0.30437121 5 0 -0.051964164
3.3006582 -2.0536795 0.067854956 53 8 -0.051961862
1.1465168 -0.71364379 -0.31178215 4 1 -0.051959559
3.302702 -2.0565505 0.2039009 50 9 -0.051957253
1.4047627 -0.87506831 -0.321704 2 2 -0.051954951
3.3162758 -2.0658066 0.34182483 56 10 -0.051952645
1.7938467 -1.1178747 -0.33476979 2 3 -0.051950343
3.3101494 -2.0635943 0.47894657 47 11 -0.051948037
2.3749633 -1.4811615 -0.34367159 3 4 -0.051945735
3.2982597 -2.057781 0.61572611 49 12 -0.051943429
3.3009503 -2.0602601 -0.34043032 46 5 -0.051941127
3.3189373 -2.0722919 0.76056474 47 13 -0.051938821
3.1386778 -1.960502 0.8543641 47 14 -0.051934212
3.2950132 -2.0589528 -0.06782005 45 7 -0.05193191
3.0190632 -1.8872529 0.95400703 50 15 -0.051929604
0.96564895 -0.6055156 -0.30540648 5 0 -0.051908869
3.2998846 -2.0700135 0.067994572 56 8 -0.051906567
1.1603998 -0.72819966 -0.31628117 4 1 -0.051904261
3.3019085 -2.0728898 0.2043196 50 9 -0.051901959
1.3849204 -0.86976981 -0.31788781 2 2 -0.051899653
3.308682 -2.0779474 0.34182483 56 10 -0.051897351
1.7863922 -1.1223403 -0.33414406 2 3 -0.051895045
3.3176901 -2.0852196 0.4811402 52 11 -0.051892743
2.3829627 -1.4983094 -0.3456215 3 4 -0.051890437
3.2990558 -2.0751147 0.61729044 44 12 -0.051888134
3.3034949 -2.0787117 -0.3414762 46 5 -0.051885828
3.3096583 -2.0833964 0.7601831 46 13 -0.051883526
3.1298223 -1.9709544 0.8539142 53 14 -0.051878918
3.3009803 -2.0795429 -0.06809929 47 7 -0.051876612
2.9990511 -1.8900656 0.94986594 52 15 -0.05187431
0.96995485 -0.61317992 -0.30747706 5 0 -0.051853575
3.2990358 -2.0863698 0.068134196 53 8 -0.051851269
1.1396079 -0.72098714 -0.31133226 4 1 -0.051848967
3.3044147 -2.0913863 0.20494762 50 9 -0.051846661
1.4082628 -0.89164346 -0.32399368 2 2 -0.051844358
3.3178773 -2.1007185 0.34356794 52 10 -0.051842052
1.762241 -1.1161962 -0.33038962 2 3 -0.05183975
3.3083479 -2.0963032 0.48089647 47 11 -0.051837444
2.3942215 -1.5176611 -0.34805888 3 4 -0.051835142
3.3014374 -2.0935397 0.61916769 44 12 -0.051832836
3.304266 -2.0961418 -0.34234774 45 5 -0.051830534
3.3169191 -2.1049805 0.76361769 48 13 -0.051828228
3.129158 -1.9865903 0.85571378 55 14 -0.05182362
3.2967122 -2.0937717 -0.068169102 41 7 -0.051821318
3.0035176 -1.9082971 0.95348942 58 15 -0.051819012
0.97465062 -0.62020367 -0.3095476 5 0 -0.051809072
3.3046393 -2.1036658 0.06837853 52 8 -0.05180677
1.1473261 -0.73064572 -0.31403166 4 1 -0.051804464
3.3083014 -2.1076207 0.20557566 52 9 -0.051802162
1.4157021 -0.90190178 -0.3262834 2 2 -0.051799856
3.3217108 -2.1169782 0.34461379 56 10 -0.051797554
1.7822405 -1.1362872 -0.33476979 2 3 -0.051795248
3.3054614 -2.1082449 0.48138395 48 11 -0.051792946
2.379667 -1.5183518 -0.34659645 3 4 -0.05179064
3.3052018 -2.1097031 0.62104493 42 12 -0.051788338
3.3097868 -2.1134424 -0.34356794 49 5 -0.051786032
3.3259196 -2.123744 0.76705217 47 13 -0.051783729
3.12325 -1.9958658 0.85571378 55 14 -0.051779121
3.3073335 -2.1143148 -0.068518147 47 7 -0.051776815
3.00598 -1.9224042 0.95607764 53 15 -0.051774513
0.95936263 -0.61542708 -0.30540648 5 0 -0.051753778
3.3090577 -2.1227465 0.068622865 56 8 -0.051751472
1.1464088 -0.73569876 -0.31448159 4 1 -0.05174917
3.3076472 -2.123472 0.20599434 50 9 -0.051746864
1.3958678 -0.89647526 -0.32246721 2 2 -0.051744562
3.3273394 -2.1377544 0.3460083 55 10 -0.051742256
1.7680933 -1.1364036 -0.33289257 2 3 -0.051739953
3.3114409 -2.1283569 0.48333386 49 11 -0.051737648
2.3710132 -1.5245019 -0.34610897 3 4 -0.051735345
3.3028014 -2.124433 0.62198347 47 12 -0.051733039
3.3174686 -2.1346862 -0.34513673 52 5 -0.051730737
3.3346214 -2.1465466 0.77086836 47 13 -0.051728431
3.1273813 -2.0146873 0.85886312 56 14 -0.051723823
3.2982521 -2.1247637 -0.068483248 42 7 -0.051721521
3.0122421 -1.9412572 0.96021873 52 15 -0.051719215
0.95883083 -0.61982089 -0.30592412 5 0 -0.05169848
3.3096511 -2.1402903 0.068797387 52 8 -0.051696178
1.1453408 -0.7409541 -0.31493148 4 1 -0.051693872
3.3035688 -2.1371744 0.2062037 49 9 -0.051691569
1.3894336 -0.8992089 -0.321704 2 2 -0.051689263
3.3232019 -2.1515214 0.34635693 53 10 -0.051686961
1.7773799 -1.1511593 -0.33539551 2 3 -0.051684655
3.316946 -2.1491148 0.48528376 47 11 -0.051682353
2.3837333 -1.5450587 -0.34879011 2 4 -0.051680047
3.3003385 -2.1391726 0.62292212 45 12 -0.051677745
3.315012 -2.1495051 -0.34565967 49 5 -0.051675439
3.3353438 -2.1635153 0.77277648 46 13 -0.051673137
3.1285024 -2.0308969 0.86111259 55 14 -0.051668528
3.3008788 -2.1427965 -0.068692669 42 7 -0.051666226
3.0054471 -1.9517603 0.96021873 52 15 -0.05166392
0.95180523 -0.62000072 -0.30437121 5 0 -0.051643185
3.3109133 -2.1567109 0.06897191 53 8 -0.051640879
1.1281832 -0.73517281 -0.31088236 4 1 -0.051638577
3.31282 -2.1596 0.20725042 50 9 -0.051636271
1.3994421 -0.912633 -0.32475692 2 2 -0.051633969
3.3190086 -2.1652858 0.34670553 56 10 -0.051631663
1.7735528 -1.1570469 -0.33539551 2 3 -0.051629361
3.3164506 -2.1644421 0.48625872 49 11 -0.051627055
2.3686233 -1.5464435 -0.34732765 2 4 -0.051624753
3.3060822 -2.1593213 0.62542504 45 12 -0.05162245
3.3158281 -2.1665127 -0.34653121 52 5 -0.051620144
3.3281507 -2.1745641 0.77277648 43 13 -0.051617842
3.1380606 -2.0519254 0.86561167 50 14 -0.051613234
3.3017461 -2.1597791 -0.068867192 43 7 -0.051610928
3.0050821 -1.9664705 0.96228927 52 15 -0.051608626
0.96266574 -0.63163191 -0.3085123 5 0 -0.051587887
3.3083801 -2.1715465 0.069076627 52 8 -0.051585585
1.132126 -0.74338496 -0.31268197 4 1 -0.051583279
3.3186159 -2.1799231 0.20808777 50 9 -0.051580977
1.3898444 -0.91295707 -0.32323048 2 2 -0.051578671
3.3284607 -2.1872215 0.34844866 55 10 -0.051576369
1.7529964 -1.1523795 -0.33226684 2 3 -0.051574066
3.3188264 -2.18255 0.48772117 52 11 -0.05157176
2.3582356 -1.5514292 -0.34659645 3 4 -0.051569458
3.3117259 -2.1795363 0.62792808 51 12 -0.051567152
3.3232226 -2.1879344 -0.34810004 50 5 -0.05156485
3.3270988 -2.1904864 0.7743029 45 13 -0.051562544
3.1471517 -2.0735886 0.87011069 48 14 -0.051557936
3.3075442 -2.1800952 -0.069146432 42 7 -0.051555634
3.0078764 -1.9833289 0.96539509 48 15 -0.051553328
0.96034425 -0.63515604 -0.3085123 5 0 -0.051532593
3.3157909 -2.1930099 0.069390766 56 8 -0.051530287
1.1311494 -0.74840754 -0.31313187 4 1 -0.051527984
3.3059897 -2.1881869 0.20777377 49 9 -0.051525682
1.3930367 -0.92238051 -0.32475692 2 2 -0.051523376
3.3270657 -2.2038074 0.34914589 58 10 -0.051521074
1.7652277 -1.1697084 -0.33539551 2 3 -0.051518768
3.3227711 -2.2017972 0.48942733 56 11 -0.051516466
2.3494966 -1.5574579 -0.34610897 3 4 -0.05151416
3.3123288 -2.1965418 0.62949234 55 12 -0.051511858
3.3188856 -2.2017238 -0.34844866 49 5 -0.051509552
3.3304989 -2.2102654 0.77697426 43 13 -0.051507249
3.1395307 -2.0851092 0.87011069 50 14 -0.051502641
3.3115745 -2.1993716 -0.069390766 48 7 -0.051500335
3.0138075 -2.0023689 0.96953619 50 15 -0.051498033
0.95972878 -0.63957566 -0.30902994 5 0 -0.051477298
3.3243694 -2.2162409 0.069739819 57 8 -0.051474992
1.1300199 -0.75362962 -0.31358176 4 1 -0.05147269
3.3132861 -2.2096872 0.20871581 50 9 -0.051470384
1.3865422 -0.92505836 -0.32399368 3 2 -0.051468082
3.3359251 -2.2264681 0.350889 63 10 -0.051465776
1.7479911 -1.1670878 -0.33289257 2 3 -0.051463474
3.3278844 -2.2227809 0.4913772 56 11 -0.051461168
2.3275385 -1.5546237 -0.34367159 3 4 -0.051458865
3.3112109 -2.2124805 0.6307438 57 12 -0.051456559
3.3327131 -2.227689 -0.35071471 57 5 -0.051454257
3.3341873 -2.2295165 0.77964556 43 13 -0.051451951
3.1374578 -2.0987592 0.87146038 45 14 -0.051447343
3.3022151 -2.2098062 -0.069355868 43 7 -0.051445041
3.0228531 -2.0236237 0.97471261 50 15 -0.051442735
0.95279062 -0.63952488 -0.30747706 5 0 -0.051422
3.3336031 -2.2383997 0.070088863 63 8 -0.051419698
1.1291323 -0.75845933 -0.31403166 4 1 -0.051417392
3.3225203 -2.2317991 0.20976254 57 9 -0.05141509
1.3736899 -0.92308122 -0.321704 3 2 -0.051412784
3.3285234 -2.2375183 0.350889 61 10 -0.051410481
1.7703385 -1.1905153 -0.33789849 2 3 -0.051408175
3.333672 -2.2426691 0.49332717 56 11 -0.051405873
2.335547 -1.5711981 -0.3456215 3 4 -0.051403567
3.310411 -2.22786 0.63199526 62 12 -0.051401265
3.3286135 -2.2409544 -0.35106334 57 5 -0.051398959
3.3495731 -2.2559147 0.78498828 43 13 -0.051396657
3.1450264 -2.1189518 0.8755095 48 14 -0.051392049
3.3048184 -2.2274501 -0.069565296 42 7 -0.051389746
3.0193293 -2.0357966 0.97574782 48 15 -0.05138744
0.95226508 -0.64376277 -0.30799466 5 0 -0.051366705
3.3294749 -2.2516825 0.070158668 63 8 -0.051364399
1.1362953 -0.76875138 -0.3167311 4 1 -0.051362097
3.3279417 -2.2523389 0.21059991 57 9 -0.051359791
1.3771248 -0.93203312 -0.32323048 3 2 -0.051357489
3.3309841 -2.2552457 0.35193488 61 10 -0.051355183
1.7631098 -1.194164 -0.33727276 2 3 -0.051352881
3.3377204 -2.2615061 0.49503332 53 11 -0.051350575
2.3284049 -1.5782274 -0.34537774 4 4 -0.051348273
3.318964 -2.2504883 0.63512403 57 12 -0.051345967
3.3310578 -2.2586887 -0.35210916 57 5 -0.051343665
3.3339498 -2.2614992 0.78308016 42 13 -0.051341362
3.1472847 -2.1364844 0.87820894 48 14 -0.051336754
3.3086028 -2.2468364 -0.069809623 50 7 -0.051334448
3.0185966 -2.0506659 0.97781837 50 15 -0.051332146
0.94202888 -0.64164519 -0.30540648 5 0 -0.051311407
3.3249002 -2.265543 0.070228487 63 8 -0.051309105
1.1239434 -0.76612741 -0.31403166 4 1 -0.051306799
3.3299599 -2.2706933 0.21122794 55 9 -0.051304497
1.3835951 -0.9434709 -0.32552016 3 2 -0.051302191
3.3362589 -2.2758415 0.35332939 58 10 -0.051299889
1.7458775 -1.1914033 -0.33476979 2 3 -0.051297583
3.3363636 -2.2776201 0.49600828 53 11 -0.05129528
2.3277996 -1.5897039 -0.34610897 3 4 -0.051292978
3.3208747 -2.2687457 0.63700122 55 12 -0.051290672
3.3379593 -2.2804174 -0.35367799 60 5 -0.05128837
3.3406236 -2.2830932 0.7865147 45 13 -0.051286064
3.1542842 -2.1573586 0.88225806 47 14 -0.051281456
3.3172436 -2.2696638 -0.070158668 46 7 -0.051279154
3.0273619 -2.0721018 0.98299474 48 15 -0.051276848
0.94934046 -0.65148824 -0.3085123 5 0 -0.051256113
3.3285117 -2.2850573 0.070472814 59 8 -0.051253807
1.1100177 -0.76232362 -0.31088236 4 1 -0.051251505
3.3253059 -2.2845647 0.21143727 55 9 -0.051249199
1.3770572 -0.94607127 -0.32475692 3 2 -0.051246896
3.3447139 -2.2987583 0.3550725 57 10 -0.051244594
1.7514746 -1.2042052 -0.33664703 2 3 -0.051242288
3.3349352 -2.293752 0.4969832 55 11 -0.051239986
2.3287778 -1.6023204 -0.3470839 3 4 -0.05123768
3.3357158 -2.2960043 0.64138144 57 12 -0.051235378
3.3377838 -2.2982864 -0.35454956 57 5 -0.051233072
3.3423355 -2.3014207 0.78880447 45 13 -0.05123077
3.1515486 -2.1716733 0.88360775 50 14 -0.051226161
3.3241186 -2.2914433 -0.070472814 47 7 -0.051223855
3.0232913 -2.0848503 0.98403007 47 15 -0.051221553
0.95330161 -0.6593591 -0.31058288 5 0 -0.051200818
3.3369615 -2.3080375 0.070821866 59 8 -0.051198512
1.1153625 -0.77173775 -0.31313187 4 1 -0.05119621
3.3238802 -2.3007054 0.21185598 55 9 -0.051193904
1.3590537 -0.94105345 -0.32132238 3 2 -0.051191602
3.3428178 -2.3155401 0.35576975 58 10 -0.051189296
1.7470492 -1.2106166 -0.33664703 2 3 -0.051186994
3.3399618 -2.3144243 0.49893317 51 11 -0.051184688
2.3166449 -1.605916 -0.34610897 3 4 -0.051182386
3.324434 -2.3053825 0.64075565 55 12 -0.05118008
3.3412004 -2.3178732 -0.35576975 51 5 -0.051177777
3.3403296 -2.3181326 0.79033089 43 13 -0.051175471
3.154772 -2.1909907 0.88675708 50 14 -0.051170863
3.3193848 -2.3053145 -0.070542626 48 7 -0.051168561
3.0286872 -2.1042089 0.9881711 48 15 -0.051166255
0.93989938 -0.65495145 -0.30695942 5 0 -0.05114552
3.3416035 -2.3294013 0.071101107 61 8 -0.051143218
1.1189203 -0.78027934 -0.31493148 4 1 -0.051140912
3.3272963 -2.3202908 0.21258868 52 9 -0.05113861
1.3541502 -0.94466829 -0.32094073 3 2 -0.051136304
3.3445179 -2.3340359 0.35681561 58 10 -0.051134001
1.736334 -1.2121845 -0.33539551 2 3 -0.051131696
3.3477311 -2.3380163 0.50137055 51 11 -0.051129393
2.3091156 -1.6132592 -0.34586522 2 4 -0.051127087
3.3325593 -2.3282862 0.64388436 55 12 -0.051124785
3.334722 -2.3306632 -0.35594404 57 5 -0.051122479
3.3483076 -2.3410282 0.79414707 45 13 -0.051120177
3.1598785 -2.2109272 0.89035624 50 14 -0.051115569
3.3145943 -2.31918 -0.070612431 45 7 -0.051113263
3.0339854 -2.12363 0.99231225 45 15 -0.051110961
0.93444508 -0.6560083 -0.30592412 5 0 -0.051090226
3.3371339 -2.3427675 0.071170911 59 8 -0.05108792
1.1163267 -0.7839855 -0.31493148 4 1 -0.051085617
3.3322506 -2.3410764 0.21342604 52 9 -0.051083311
1.3669069 -0.96067822 -0.32475692 3 2 -0.051081009
3.3428695 -2.3502798 0.35751286 57 10 -0.051078703
1.7290727 -1.2156636 -0.33476979 2 3 -0.051076401
3.348078 -2.354815 0.50258923 48 11 -0.051074095
2.3118708 -1.6266193 -0.3470839 3 4 -0.051071793
3.3324893 -2.3455896 0.64544868 51 12 -0.051069487
3.3314536 -2.3457305 -0.35646698 54 5 -0.051067185
3.3453417 -2.3555095 0.79529196 47 13 -0.051064879
3.1573083 -2.2247612 0.89170599 50 14 -0.051060274
3.3244579 -2.3434093 -0.070996389 46 7 -0.051057968
3.0265539 -2.1342077 0.99231225 47 15 -0.051055666
0.94015175 -0.66467959 -0.3085123 5 0 -0.051034927
3.3305686 -2.355557 0.071205825 57 8 -0.051032625
1.1024474 -0.77999866 -0.31178215 4 1 -0.051030319
3.3403611 -2.3642323 0.21447276 51 9 -0.051028017
1.3540988 -0.95840055 -0.32246721 3 2 -0.051025711
3.3496919 -2.3717139 0.35908166 55 10 -0.051023409
1.7151468 -1.214841 -0.33289257 2 3 -0.051021103
3.3463163 -2.3710783 0.50356412 48 11 -0.051018801
2.3272326 -1.6496025 -0.35025251 2 4 -0.051016495
3.340395 -2.3686345 0.64857739 53 12 -0.051014192
3.3346202 -2.3654141 -0.35768715 52 5 -0.05101189
3.341903 -2.3705802 0.79643679 46 13 -0.051009584
3.1733592 -2.2526891 0.89845449 47 14 -0.051004976
3.3309309 -2.3654199 -0.071310528 45 7 -0.051002674
3.0301101 -2.1525912 0.99593574 43 15 -0.051000368
0.93456256 -0.66587901 -0.30747706 5 0 -0.050979633
3.3353543 -2.3764513 0.071485057 57 8 -0.050977327
1.1076524 -0.78949749 -0.31403166 4 1 -0.050975025
3.336967 -2.3793564 0.21478678 49 9 -0.050972719
1.3569702 -0.96791744 -0.32399368 3 2 -0.050970417
3.3539512 -2.3932335 0.36047614 58 10 -0.050968114
1.7171139 -1.22571 -0.33414406 2 3 -0.050965808
3.3444824 -2.3873582 0.50453913 47 11 -0.050963506
2.3149981 -1.6531017 -0.34927759 2 4 -0.0509612
3.3417506 -2.3871691 0.65045458 49 12 -0.050958898
3.3393116 -2.3863072 -0.35908166 51 5 -0.050956592
3.345969 -2.3919468 0.79948968 45 13 -0.05095429
3.1650815 -2.2643049 0.89845449 47 14 -0.050949682
3.332412 -2.3840134 -0.071519956 43 7 -0.050947376
3.0414295 -2.1766469 1.0021474 40 15 -0.050945073
0.93694079 -0.67251652 -0.30902994 5 0 -0.050924335
3.3412406 -2.3991568 0.071799204 52 8 -0.050922032
1.1000031 -0.7901414 -0.31268197 4 1 -0.05091973
3.3335071 -2.3944857 0.2151008 55 9 -0.050917424
1.3503945 -0.97035694 -0.32323048 2 2 -0.050915122
3.3617547 -2.4165554 0.36221924 58 10 -0.050912816
1.7288625 -1.243229 -0.33727276 2 3 -0.050910514
3.3421559 -2.404237 0.50551409 48 11 -0.050908208
2.2928112 -1.6499802 -0.3468402 2 4 -0.050905906
3.3366046 -2.4011271 0.65108031 50 12 -0.0509036
3.3503649 -2.4119177 -0.36117339 49 5 -0.050901297
3.3599029 -2.4196744 0.8048324 45 13 -0.050898992
3.161901 -2.2787573 0.89980417 52 14 -0.050894383
3.3321815 -2.4014771 -0.071694486 43 7 -0.050892081
3.0432155 -2.1940289 1.0052532 40 15 -0.050889775
0.93615299 -0.67691499 -0.3095476 5 0 -0.05086904
3.34623 -2.4195971 0.072078437 52 8 -0.050866738
1.1005348 -0.79606909 -0.31358176 4 1 -0.050864432
3.3413091 -2.4178159 0.21614751 55 9 -0.05086213
1.3692638 -0.99118155 -0.32857311 2 2 -0.050859824
3.3532987 -2.4282753 0.36221924 58 10 -0.050857522
1.7279299 -1.2512723 -0.33789849 2 3 -0.050855216
3.3438103 -2.4222941 0.50697654 48 11 -0.050852913
2.303401 -1.6692232 -0.34927759 1 4 -0.050850607
3.3314013 -2.4150784 0.6517061 51 12 -0.050848305
3.3419251 -2.4235981 -0.36117339 49 5 -0.050845999
3.3550389 -2.4331081 0.80559564 43 13 -0.050843697
3.1732531 -2.3029654 0.90520304 49 14 -0.050839089
3.3286333 -2.4166186 -0.071799204 43 7 -0.050836783
3.0386646 -2.2069089 1.0062885 43 15 -0.050834481
0.92765635 -0.67546707 -0.30747706 5 0 -0.050813746
3.3474617 -2.4383273 0.072287865 52 8 -0.05081144
1.1024742 -0.80334872 -0.31493148 4 1 -0.050809138
3.3478007 -2.4394686 0.21708956 52 9 -0.050806832
1.3437583 -0.97952622 -0.32323048 2 2 -0.050804529
3.3484478 -2.4417298 0.3625679 58 10 -0.050802223
1.7171682 -1.2526399 -0.33664703 2 3 -0.050799921
3.3593869 -2.451504 0.51063257 53 11 -0.050797615
2.3039734 -1.681935 -0.35025251 2 4 -0.050795313
3.339329 -2.4377599 0.65483475 50 12 -0.050793007
3.3451331 -2.4428918 -0.36239356 52 5 -0.050790705
3.3607931 -2.4552274 0.80903018 43 13 -0.050788399
3.1714873 -2.3186285 0.90700263 43 14 -0.050783791
3.3367441 -2.4394453 -0.072148249 43 7 -0.050781488
3.0406852 -2.2238159 1.0093943 43 15 -0.050779186
0.93308151 -0.68441409 -0.31006524 5 0 -0.050758447
3.3377454 -2.4482319 0.072252966 50 8 -0.050756145
1.098233 -0.80584741 -0.31448159 4 1 -0.050753839
3.3537555 -2.4617763 0.21803163 55 9 -0.050751537
1.3529905 -0.99350685 -0.3262834 2 2 -0.050749231
3.3527496 -2.4628394 0.36396238 58 10 -0.050746929
1.719373 -1.263005 -0.33789849 2 3 -0.050744623
3.3448408 -2.4579284 0.50965762 52 11 -0.050742321
2.3047812 -1.6942691 -0.35122749 2 4 -0.050740015
3.3467135 -2.4611042 0.65796345 51 12 -0.050737713
3.3462145 -2.4616375 -0.36343944 52 5 -0.050735407
3.365284 -2.4756658 0.81208313 42 13 -0.050733104
3.1763358 -2.3383758 0.91060191 47 14 -0.050728496
3.3314283 -2.4534492 -0.072218053 45 7 -0.050726194
3.0422363 -2.2412915 1.0125002 43 15 -0.050723888
0.93080682 -0.68750459 -0.31006524 5 0 -0.050703153
3.3533032 -2.4776928 0.072776534 64 8 -0.050700847
1.103249 -0.81546766 -0.3167311 4 1 -0.050698545
3.3451419 -2.4734681 0.21803163 55 9 -0.050696239
1.3528458 -1.0003226 -0.32704663 2 2 -0.050693937
3.363786 -2.4881623 0.36605412 60 10 -0.050691631
1.7086021 -1.2642992 -0.33664703 2 3 -0.050689328
3.3521962 -2.4813998 0.51209503 52 11 -0.050687026
2.2924716 -1.6975787 -0.35025251 1 4 -0.05068472
3.3508005 -2.482178 0.66046637 53 12 -0.050682418
3.3488069 -2.481607 -0.36465961 50 5 -0.050680112
3.3660855 -2.4944112 0.81437284 42 13 -0.05067781
3.1744153 -2.3540919 0.9124015 43 14 -0.050673202
3.3437221 -2.480552 -0.072671816 50 7 -0.050670896
3.0483565 -2.2622585 1.0171589 47 15 -0.050668593
0.92518121 -0.68860453 -0.30902994 5 0 -0.050647855
3.354259 -2.4965465 0.072985962 58 8 -0.050645553
1.1035218 -0.82164127 -0.31763089 4 1 -0.05064325
3.3476999 -2.4934812 0.21876432 53 9 -0.050640944
1.3334273 -0.99354404 -0.32323048 2 2 -0.050638642
3.3674231 -2.5099998 0.3674486 56 10 -0.050636336
1.7134584 -1.2776378 -0.33852422 2 3 -0.050634034
3.3594277 -2.5049524 0.51453239 53 11 -0.050631728
2.3119912 -1.7245609 -0.35415235 1 4 -0.050629426
3.3421156 -2.4938595 0.66046637 53 12 -0.05062712
3.3576875 -2.506391 -0.36657706 55 5 -0.050624818
3.3679323 -2.5149543 0.81704414 42 13 -0.050622512
3.1688881 -2.3680444 0.91330135 47 14 -0.050617903
3.3334415 -2.4910116 -0.072636917 49 7 -0.050615601
3.0543666 -2.2832956 1.0218177 42 15 -0.050613295
0.91504341 -0.68603563 -0.30644175 5 0 -0.05059256
3.3594842 -2.5196226 0.073300108 58 8 -0.050590258
1.1005028 -0.82568049 -0.31763089 4 1 -0.050587952
3.346525 -2.5117288 0.21928766 56 9 -0.05058565
1.3362318 -1.0029066 -0.32475692 2 2 -0.050583344
3.3634212 -2.5253277 0.36797154 63 10 -0.050581042
1.7026703 -1.2788658 -0.33727276 2 3 -0.050578736
3.3613334 -2.5255954 0.51623857 48 11 -0.050576434
2.2961338 -1.7258667 -0.35268989 1 4 -0.050574128
3.3424261 -2.5132151 0.66234362 53 12 -0.050571825
3.354847 -2.5234716 -0.36727428 55 5 -0.050569519
3.3732533 -2.5373166 0.82047874 43 13 -0.050567217
3.1761723 -2.3908107 0.91780037 47 14 -0.050562609
3.3290813 -2.5068214 -0.072741628 46 7 -0.050560303
3.0475206 -2.2956376 1.0223353 45 15 -0.050558001
0.91406441 -0.69054943 -0.30695942 5 0 -0.050537266
3.3618371 -2.5397716 0.073544443 61 8 -0.05053496
1.0882859 -0.82246715 -0.31493148 4 1 -0.050532658
3.3568554 -2.5378489 0.22054374 61 9 -0.050530352
1.3356787 -1.0101659 -0.32552016 2 2 -0.050528049
3.3589098 -2.541245 0.36849448 60 10 -0.050525744
1.6979717 -1.2850978 -0.33727276 2 3 -0.050523441
3.3651597 -2.5468974 0.51818854 47 11 -0.050521135
2.2805996 -1.7266818 -0.35122749 2 4 -0.050518833
3.3446553 -2.5332155 0.66453367 57 12 -0.050516527
3.3507824 -2.5387762 -0.36779723 55 5 -0.050514225
3.3701897 -2.5544066 0.82200515 43 13 -0.050511919
3.1751509 -2.4083245 0.92004979 43 14 -0.050507311
3.3489885 -2.5401788 -0.073369913 50 7 -0.050505009
3.0548785 -2.3179386 1.0275117 45 15 -0.050502703
0.91342813 -0.69458693 -0.30747706 5 0 -0.050485134
3.3518054 -2.5496953 0.073509537 58 8 -0.050482832
1.088654 -0.82843173 -0.31583127 4 1 -0.050480526
3.3627243 -2.5598547 0.22148579 57 9 -0.050478224
1.3387473 -1.0191137 -0.32704663 2 2 -0.050475918
3.3699305 -2.5662699 0.37058622 64 10 -0.050473616
1.684498 -1.2832434 -0.33539551 2 3 -0.05047131
3.3709052 -2.5688713 0.52038211 52 11 -0.050469007
2.2748611 -1.734235 -0.35122749 2 4 -0.050466701
3.3566561 -2.5598655 0.66860098 50 12 -0.050464399
3.3613539 -2.5643759 -0.36988899 50 5 -0.050462093
3.3715138 -2.5721269 0.82429492 43 13 -0.050459791
3.1877055 -2.4336607 0.92589855 45 14 -0.050455183
3.3500822 -2.558553 -0.073579341 48 7 -0.050452877
3.0579207 -2.336266 1.0311351 43 15 -0.050450575
0.91854364 -0.70380497 -0.31006524 5 0 -0.05042984
3.3587577 -2.5735419 0.073858589 57 8 -0.050427534
1.0780225 -0.82629919 -0.31358176 5 1 -0.050425231
3.3585229 -2.575223 0.22179982 61 9 -0.050422926
1.335003 -1.0240135 -0.32704663 2 2 -0.050420623
3.3747277 -2.5895197 0.37215498 61 10 -0.050418317
1.682917 -1.2918143 -0.33602124 2 3 -0.050416015
3.3666418 -2.5842485 0.52111334 48 11 -0.050413709
2.2876871 -1.7566733 -0.35415235 2 4 -0.050411407
3.3633657 -2.5836 0.67172968 53 12 -0.050409101
3.3697598 -2.5894473 -0.37180638 52 5 -0.050406799
3.3807418 -2.5988247 0.82887435 45 13 -0.050404493
3.1787646 -2.4453278 0.92589855 47 14 -0.050399885
3.3553958 -2.5812049 -0.073893487 45 7 -0.050397582
3.0635259 -2.3575294 1.0357939 49 15 -0.050395276
0.91455191 -0.70582664 -0.3095476 5 0 -0.050374541
3.363548 -2.5968335 0.074172728 61 8 -0.050372239
1.0842404 -0.83739185 -0.31628117 4 1 -0.050369933
3.3574169 -2.593035 0.22232316 56 9 -0.050367631
1.3283132 -1.0262668 -0.3262834 2 2 -0.050365325
3.381433 -2.6134684 0.37389815 61 10 -0.050363023
1.6971507 -1.3121804 -0.33977571 2 3 -0.050360717
3.3728497 -2.6087151 0.52355075 48 11 -0.050358415
2.2561128 -1.7456099 -0.35025251 2 4 -0.050356109
3.3605757 -2.6001599 0.67298114 53 12 -0.050353806
3.3717299 -2.6097307 -0.37302658 45 5 -0.050351501
3.3809638 -2.6178219 0.83116406 43 13 -0.050349198
3.1702094 -2.456409 0.92589855 36 14 -0.05034459
3.3511074 -2.5965762 -0.073998205 46 7 -0.050342288
3.0720737 -2.3812275 1.0414879 43 15 -0.050339982
0.91970861 -0.71494299 -0.31213579 5 0 -0.050319247
3.3659699 -2.6165643 0.074417062 58 8 -0.050316941
1.0906878 -0.84816039 -0.3189806 4 1 -0.050314639
3.364109 -2.6170018 0.22336988 57 9 -0.050312333
1.3185252 -1.0260743 -0.32475692 2 2 -0.050310031
3.3770058 -2.6289272 0.37442106 64 10 -0.050307725
1.6990249 -1.3226547 -0.34102717 2 3 -0.050305422
3.379842 -2.6320829 0.5259881 47 11 -0.050303116
2.2722356 -1.7701614 -0.35366488 2 4 -0.050300814
3.3608277 -2.6191604 0.67485833 51 12 -0.050298512
3.3625994 -2.6214845 -0.37302658 45 5 -0.050296206
3.3877473 -2.6410897 0.83498025 43 13 -0.050293904
3.1512909 -2.4585171 0.92274922 24 14 -0.050289296
3.3483286 -2.6131787 -0.074137822 45 7 -0.05028699
3.0667882 -2.3943143 1.0425231 47 15 -0.050284687
0.90364122 -0.70727271 -0.30747706 5 0 -0.050263949
3.3631141 -2.6332288 0.074556686 57 8 -0.050261647
1.0769813 -0.84355098 -0.31583127 4 1 -0.050259341
3.3675311 -2.6385839 0.22420727 56 9 -0.050257038
1.3305691 -1.0425496 -0.32857311 2 2 -0.050254732
3.3761098 -2.6462569 0.37529263 57 10 -0.05025243
1.6757437 -1.3139509 -0.33727276 2 3 -0.050250128
3.3800054 -2.6512153 0.52745056 46 11 -0.050247822
2.2785366 -1.7878854 -0.35561478 2 4 -0.05024552
3.3672035 -2.6430726 0.67798704 53 12 -0.050243214
3.3632913 -2.6400018 -0.37407246 43 5 -0.050240912
3.3738751 -2.6492615 0.83383536 40 13 -0.050238606
3.0951891 -2.4321766 0.90880221 22 14 -0.050233997
3.3580525 -2.6396806 -0.074556686 41 7 -0.050231695
3.0705607 -2.4145577 1.0466642 42 15 -0.050229389
0.90723532 -0.71520662 -0.3095476 5 0 -0.050208654
3.364893 -2.65362 0.074801013 55 8 -0.050206348
1.0725002 -0.84609824 -0.31538138 4 1 -0.050204046
3.3724105 -2.6614585 0.2251493 54 9 -0.050201744
1.3207573 -1.0423229 -0.32704663 2 2 -0.050199438
3.385618 -2.6728406 0.37738436 57 10 -0.050197136
1.671147 -1.3197923 -0.33727276 2 3 -0.05019483
3.3785188 -2.6691508 0.52866924 45 11 -0.050192527
2.2567074 -1.7835196 -0.3531774 2 4 -0.050190222
3.3703539 -2.6646113 0.68049002 49 12 -0.050187919
3.3712475 -2.6653178 -0.37598985 35 5 -0.050185613
3.3507481 -2.6500618 0.83040082 28 13 -0.050183311
3.1202977 -2.4695728 0.9187001 45 14 -0.050178703
3.3550887 -2.6563513 -0.074696302 45 7 -0.050176397
3.0712001 -2.4324579 1.0497701 42 15 -0.050174095
0.90473318 -0.71836907 -0.3095476 5 0 -0.05015336
3.3681362 -2.6752992 0.075080253 52 8 -0.050151054
1.0664889 -0.84741211 -0.31448159 4 1 -0.050148752
3.3709173 -2.6794279 0.22567266 54 9 -0.050146446
1.3171109 -1.0469267 -0.32704663 2 2 -0.050144143
3.3871837 -2.6933222 0.37860456 56 10 -0.050141837
1.6634378 -1.3231583 -0.33664703 2 3 -0.050139535
3.3722873 -2.6833997 0.52915668 43 11 -0.050137229
2.2442555 -1.7864408 -0.35220242 2 4 -0.050134927
3.3764849 -2.6886649 0.68361872 50 12 -0.050132621
3.3697164 -2.6832752 -0.37686142 33 5 -0.050130319
3.2877307 -2.6189291 0.81704414 21 13 -0.050128013
3.1223252 -2.4889524 0.92184937 66 14 -0.050123405
3.3692477 -2.686748 -0.075219877 49 7 -0.050121102
3.0747719 -2.4528012 1.0539112 42 15 -0.050118797
0.90372896 -0.72272944 -0.31006524 5 0 -0.050098062
3.3759537 -2.7007816 0.075464211 56 8 -0.050095759
1.0620028 -0.84991199 -0.31403166 4 1 -0.050093453
3.3677802 -2.6961713 0.22609136 56 9 -0.050091151
1.3195788 -1.0564259 -0.32857311 2 2 -0.050088845
3.3902023 -2.7150931 0.37999901 56 10 -0.050086543
1.6618924 -1.331427 -0.33727276 2 3 -0.050084237
3.3783906 -2.7075691 0.5315941 46 11 -0.050081935
2.2596893 -1.8116477 -0.35561478 1 4 -0.050079629
3.3670788 -2.7004347 0.68361872 49 12 -0.050077327
3.3774264 -2.7087333 -0.37877885 28 5 -0.050075021
3.2295673 -2.5910747 0.8048324 23 13 -0.050072718
3.1196966 -2.5047164 0.92364907 64 14 -0.05006811
3.3723214 -2.7085099 -0.07549911 49 7 -0.050065808
3.0752273 -2.4707789 1.057017 38 15 -0.050063502
0.90120059 -0.72587967 -0.31006524 5 0 -0.050042767
3.382077 -2.725096 0.075813256 56 8 -0.050040461
1.0666157 -0.85972863 -0.31628117 4 1 -0.050038159
3.3770063 -2.7229545 0.22734742 58 9 -0.050035853
1.30977 -1.0560963 -0.32704663 2 2 -0.050033551
3.3946614 -2.7381682 0.38156784 63 10 -0.050031245
1.6572348 -1.3372197 -0.33727276 2 3 -0.050028943
3.3828204 -2.7305667 0.53378779 47 11 -0.050026637
2.2379072 -1.8070537 -0.3531774 1 4 -0.050024334
3.3622422 -2.7158954 0.68455732 48 12 -0.050022028
3.3849993 -2.7342777 -0.38069627 35 5 -0.050019726
3.2342455 -2.6134372 0.80826694 36 13 -0.050017424
3.129118 -2.5302947 0.92904782 68 14 -0.050012816
3.3675106 -2.7240376 -0.075603828 51 7 -0.05001051
3.0695875 -2.4839292 1.0580523 38 15 -0.050008208
0.89716101 -0.72780389 -0.3095476 5 0 -0.049987469
3.3772023 -2.740665 0.075917974 56 8 -0.049985167
1.0802507 -0.87695724 -0.32123011 4 1 -0.049982861
3.3798838 -2.7447987 0.22818479 60 9 -0.049980558
1.3121715 -1.0656126 -0.32857311 2 2 -0.049978253
3.3850827 -2.750001 0.38156784 60 10 -0.04997595
1.6678866 -1.3554547 -0.34040144 2 3 -0.049973644
3.3948326 -2.7598898 0.53720009 50 11 -0.049971342
2.2593071 -1.837399 -0.35756469 1 4 -0.04996904
3.3711298 -2.7425745 0.6883117 48 12 -0.049966734
3.3785255 -2.7485914 -0.38104489 33 5 -0.049964432
3.2388079 -2.6358645 0.81170154 40 13 -0.049962126
3.1081786 -2.531357 0.92544866 61 14 -0.049957518
3.3672836 -2.7433548 -0.075813256 48 7 -0.049955215
3.0698833 -2.5019517 1.0611582 42 15 -0.049952909
0.89162302 -0.72848654 -0.3085123 5 0 -0.049932174
3.3753567 -2.7587645 0.076092489 56 8 -0.049929868
1.0590791 -0.8659206 -0.31583127 4 1 -0.049927566
3.3888342 -2.7717538 0.22944085 60 9 -0.04992526
1.2841289 -1.0502989 -0.32246721 3 2 -0.049922958
3.3955092 -2.7782025 0.38383389 61 10 -0.049920656
1.6417443 -1.3437521 -0.33602124 2 3 -0.04991835
3.3882501 -2.7742381 0.5376876 47 11 -0.049916048
2.2467368 -1.8402429 -0.35658973 1 4 -0.049913742
3.3752873 -2.7655931 0.69112754 51 12 -0.049911439
3.3904865 -2.7780466 -0.38348526 31 5 -0.049909133
3.2402155 -2.6558657 0.81437284 43 13 -0.049906831
3.123431 -2.5619652 0.93264711 61 14 -0.049902223
3.3762372 -2.7703133 -0.076232105 49 7 -0.049899917
3.0715837 -2.5212321 1.0647817 42 15 -0.049897615
0.89354992 -0.73527706 -0.31006524 5 0 -0.04987688
3.3796012 -2.7819679 0.076406635 56 8 -0.049874574
1.0530413 -0.86713457 -0.31493148 4 1 -0.049872272
3.3883877 -2.7911851 0.23006889 60 9 -0.049869966
1.3198535 -1.0872297 -0.3323893 2 2 -0.049867664
3.4057794 -2.8065095 0.38609993 63 10 -0.049865358
1.6644802 -1.3720917 -0.3416529 2 3 -0.049863055
3.3877351 -2.7936261 0.53915 47 11 -0.049860749
2.2249866 -1.8354422 -0.35415235 1 4 -0.049858447
3.3838961 -2.7924459 0.69488198 51 12 -0.049856141
3.3961356 -2.802546 -0.38522837 28 5 -0.049853839
3.2521214 -2.6846576 0.81971544 47 13 -0.049851533
3.1219811 -2.5790582 0.93489659 57 14 -0.049846925
3.3896685 -2.8011894 -0.076755688 49 7 -0.049844623
3.0776539 -2.5442474 1.069958 40 15 -0.049842317
0.89990252 -0.7457878 -0.31317106 5 0 -0.049821582
3.391422 -2.8116155 0.076895304 56 8 -0.049819279
1.0605081 -0.87951314 -0.31808078 4 1 -0.049816974
3.3852625 -2.8075058 0.23048759 56 9 -0.049814671
1.3069844 -1.084309 -0.33009958 2 2 -0.049812365
3.4082274 -2.8285601 0.38749442 63 10 -0.049810063
1.6475219 -1.367799 -0.33914998 2 3 -0.049807757
3.3917067 -2.816849 0.54134369 46 11 -0.049805455
2.2463756 -1.8656393 -0.35853964 1 4 -0.049803149
3.3806951 -2.8087013 0.69613349 51 12 -0.049800847
3.3955262 -2.8220246 -0.38627425 26 5 -0.049798541
3.2502792 -2.7022688 0.82162356 45 13 -0.049796239
3.1149092 -2.5906427 0.93534642 54 14 -0.04979163
3.3834355 -2.8149724 -0.0768255 46 7 -0.049789324
3.0855329 -2.5680332 1.075652 42 15 -0.049787022
0.88555765 -0.73886681 -0.30902994 5 0 -0.049766287
3.3958967 -2.8343785 0.07720945 56 8 -0.049763981
1.0501063 -0.87678027 -0.31583127 4 1 -0.049761679
3.3912649 -2.8315175 0.2315343 62 9 -0.049759373
1.2913272 -1.0785688 -0.32704663 2 2 -0.049757071
3.4003582 -2.8411243 0.38766876 60 10 -0.049754765
1.652071 -1.3808558 -0.34102717 2 3 -0.049752463
3.3945301 -2.8382676 0.5432936 45 11 -0.049750157
2.2310393 -1.8654383 -0.35707721 1 4 -0.049747854
3.3834841 -2.8300354 0.69863641 51 12 -0.049745549
3.3922615 -2.838383 -0.38697147 26 5 -0.049743246
3.2563553 -2.7256339 0.82543975 46 13 -0.04974094
3.0973368 -2.593452 0.93264711 38 14 -0.049736336
3.3832793 -2.8338809 -0.07703492 48 7 -0.04973403
3.0844042 -2.584455 1.0782403 42 15 -0.049731728
0.88162345 -0.7405569 -0.3085123 5 0 -0.049710989
3.3910718 -2.8494835 0.077314161 56 8 -0.049708687
1.0591269 -0.89028913 -0.3194305 4 1 -0.049706381
3.396647 -2.8561916 0.23258102 60 9 -0.049704079
1.2997644 -1.0929533 -0.33009958 2 2 -0.049701773
3.4015908 -2.8613625 0.38888893 60 10 -0.04969947
1.6353911 -1.3761517 -0.33852422 2 3 -0.049697164
3.4063601 -2.8674057 0.5467059 43 11 -0.049694862
2.2184403 -1.8681002 -0.35610226 1 4 -0.049692556
3.393225 -2.8583732 0.70270365 55 12 -0.049690254
3.3965442 -2.8611693 -0.3885403 24 5 -0.049687952
3.2533035 -2.7414773 0.82696623 46 13 -0.049685646
3.0957139 -2.6105292 0.93489659 54 14 -0.049681038
3.3855951 -2.8559887 -0.077314161 50 7 -0.049678735
3.0842221 -2.6026809 1.0813459 42 15 -0.049676429
0.87313336 -0.73863888 -0.30644175 5 0 -0.049655695
3.3917899 -2.8703458 0.077558495 56 8 -0.049653389
1.0456012 -0.88516688 -0.31628117 4 1 -0.049651086
3.4018979 -2.8809385 0.23362774 58 9 -0.04964878
1.2839558 -1.0873336 -0.32704663 2 2 -0.049646478
3.4052632 -2.8848093 0.39045769 60 10 -0.049644176
1.6215355 -1.3741893 -0.33664703 2 3 -0.04964187
3.4023876 -2.884414 0.54768091 42 11 -0.049639568
2.211906 -1.8758324 -0.35610226 1 4 -0.049637262
3.3967843 -2.8817015 0.7055195 50 12 -0.04963496
3.3926136 -2.8781633 -0.38923752 22 5 -0.049632654
3.2407207 -2.7502763 0.82620305 40 13 -0.049630351
3.0895536 -2.6238422 0.93579644 49 14 -0.049625743
3.3908448 -2.8807364 -0.077663213 50 7 -0.049623437
3.0839508 -2.6209373 1.0844518 40 15 -0.049621135
0.87202036 -0.74293518 -0.30695942 5 0 -0.049600396
3.400013 -2.8977334 0.077977359 57 8 -0.049598094
1.0365734 -0.88375413 -0.31448159 4 1 -0.049595792
3.3933403 -2.8940916 0.2337324 56 9 -0.049593486
1.2980776 -1.1070966 -0.33162606 2 2 -0.049591184
3.4118459 -2.9109032 0.39237517 64 10 -0.049588878
1.6347592 -1.3952296 -0.34040144 2 3 -0.049586575
3.4013565 -2.9040062 0.54914331 48 11 -0.04958427
2.1962876 -1.8758068 -0.3546398 1 4 -0.049581967
3.4017227 -2.9063725 0.7086482 49 12 -0.049579661
3.3992093 -2.9042251 -0.39115497 20 5 -0.049577359
3.2340853 -2.7641227 0.82696623 37 13 -0.049575053
3.0907421 -2.6434772 0.93894571 49 14 -0.049570445
3.3929241 -2.9029553 -0.077942446 48 7 -0.049568143
3.0997334 -2.6530414 1.0932516 42 15 -0.049565837
0.87528628 -0.75100636 -0.30902994 5 0 -0.049545102
3.4035339 -2.9213054 0.078291491 57 8 -0.0495428
1.0393963 -0.89244479 -0.31628117 4 1 -0.049540494
3.3938229 -2.9150283 0.23446509 52 9 -0.049538191
1.2852694 -1.1039459 -0.32933635 3 2 -0.049535885
3.4167757 -2.9357793 0.39411828 58 10 -0.049533583
1.6208907 -1.3932018 -0.33852422 2 3 -0.049531277
3.4032407 -2.9262154 0.55109322 46 11 -0.049528975
2.1987562 -1.8912288 -0.35610226 1 4 -0.049526669
3.3975465 -2.923383 0.70989966 49 12 -0.049524367
3.4101944 -2.9342659 -0.39359534 18 5 -0.049522061
3.2244172 -2.7753947 0.82696623 35 13 -0.049519759
3.0903552 -2.6618807 0.94164515 42 14 -0.04951515
3.3979187 -2.9278345 -0.078291491 45 7 -0.049512845
3.1094763 -2.6802418 1.099981 38 15 -0.049510542
0.87265939 -0.75405705 -0.30902994 5 0 -0.049489807
3.4129827 -2.9501681 0.078745253 57 8 -0.049487501
1.043645 -0.90244073 -0.31853068 4 1 -0.049485199
3.3972218 -2.9386172 0.23540714 54 9 -0.049482893
1.2784383 -1.1058569 -0.32857311 2 2 -0.049480591
3.4125335 -2.952903 0.3948155 60 10 -0.049478285
1.6279662 -1.409194 -0.34102717 2 3 -0.049475983
3.4140146 -2.9562695 0.55450553 49 11 -0.049473677
2.2071457 -1.9118896 -0.35853964 1 4 -0.049471375
3.3977714 -2.9442799 0.71208972 47 12 -0.049469069
3.3954141 -2.9422374 -0.3930724 16 5 -0.049466766
3.2265778 -2.796921 0.83001924 38 13 -0.04946446
3.0972373 -2.6866984 0.94659406 38 14 -0.049459852
3.3876781 -2.9396772 -0.078291491 48 7 -0.04945755
3.0971842 -2.6885471 1.0989457 38 15 -0.049455248
0.86565 -0.75329417 -0.30747706 5 0 -0.049434509
3.4086969 -2.9673154 0.078884877 57 8 -0.049432207
1.0434278 -0.90863788 -0.3194305 4 1 -0.049429901
3.4080274 -2.9688241 0.23687255 58 9 -0.049427599
1.2775311 -1.1128917 -0.32933635 3 2 -0.049425293
3.4112179 -2.972651 0.39586139 60 10 -0.049422991
1.620059 -1.412272 -0.34040144 2 3 -0.049420685
3.4186354 -2.9812155 0.55694294 50 11 -0.049418382
2.1735325 -1.8960932 -0.35415235 1 4 -0.049416076
3.4023566 -2.9691107 0.71521842 44 12 -0.049413774
3.4016359 -2.9684818 -0.39498982 16 5 -0.049411468
3.2197526 -2.8107491 0.83078241 38 13 -0.049409166
3.1069188 -2.7141602 0.95244277 35 14 -0.049404558
3.3984771 -2.969907 -0.078780167 45 7 -0.049402256
3.0965073 -2.7069712 1.1020516 35 15 -0.04939995
0.86010933 -0.75376469 -0.30644175 5 0 -0.049379215
3.4073405 -2.9871056 0.079094306 56 8 -0.049376909
1.031459 -0.90456522 -0.3167311 4 1 -0.049374606
3.4161832 -2.9959121 0.23812862 57 9 -0.049372301
1.270687 -1.1147549 -0.32857311 3 2 -0.049369998
3.4217854 -3.002939 0.39830172 58 10 -0.049367692
1.6210573 -1.4231313 -0.3416529 2 3 -0.04936539
3.4141746 -2.9983699 0.55791789 50 11 -0.049363088
2.2026927 -1.9351126 -0.36000207 1 4 -0.049360782
3.4103005 -2.996022 0.71897286 54 12 -0.04935848
3.413702 -3.000066 -0.3976045 18 5 -0.049356174
3.2276154 -2.8375263 0.83536184 36 13 -0.049353871
3.112057 -2.7378607 0.95694178 37 14 -0.049349263
3.4096289 -2.9996521 -0.079268835 47 7 -0.049346957
3.1020157 -2.7299871 1.1072279 38 15 -0.049344655
0.87775111 -0.77465892 -0.3136887 5 0 -0.049323916
3.4154079 -3.014267 0.079513162 57 8 -0.049321614
1.0342971 -0.91313958 -0.31853068 5 1 -0.049319312
3.4146864 -3.0157511 0.23875666 59 9 -0.049317006
1.2726732 -1.1243832 -0.33009958 3 2 -0.049314704
3.4262116 -3.0280592 0.40004486 58 10 -0.049312398
1.6104085 -1.4232666 -0.34040144 2 3 -0.049310096
3.4146233 -3.0188789 0.55962408 52 11 -0.04930779
2.1754456 -1.9239948 -0.35658973 1 4 -0.049305487
3.4146163 -3.0209973 0.72210157 52 12 -0.049303181
3.4136524 -3.0212071 -0.39882466 16 5 -0.049300879
3.2328894 -2.8612254 0.83917803 32 13 -0.049298573
3.113173 -2.7572098 0.96009105 41 14 -0.049293965
3.4111111 -3.0221446 -0.079548068 48 7 -0.049291663
3.1040332 -2.7510493 1.111369 38 15 -0.049289357
0.87373328 -0.77628225 -0.31317106 5 0 -0.049268622
3.4183178 -3.0381262 0.079827309 59 8 -0.04926632
1.0165397 -0.90379602 -0.31403166 4 1 -0.049264014
3.4136233 -3.0350206 0.2393847 61 9 -0.049261712
1.2572018 -1.1181593 -0.32704663 3 2 -0.049259406
3.4340134 -3.0552967 0.40213659 60 10 -0.049257103
1.6024797 -1.4262527 -0.33977571 2 3 -0.049254797
3.4233387 -3.0479405 0.56279266 49 11 -0.049252495
2.1894698 -1.9500611 -0.36000207 1 4 -0.049250189
3.4149053 -3.0415006 0.72429162 56 12 -0.049247887
3.4244416 -3.0510664 -0.40126503 16 5 -0.049245581
3.2360733 -2.8842492 0.84261262 30 13 -0.049243279
3.1122556 -2.7758431 0.96279049 41 14 -0.049238671
3.4100249 -3.0414257 -0.079757497 48 7 -0.049236365
3.1165161 -2.7806194 1.1191336 40 15 -0.049234062
0.85950059 -0.76902223 -0.30902994 5 0 -0.049213327
3.4290874 -3.0681124 0.080315977 59 8 -0.049211022
1.0207973 -0.91366029 -0.31628117 5 1 -0.049208719
3.4178877 -3.0602407 0.24043141 61 9 -0.049206413
1.253291 -1.1225411 -0.32704663 3 2 -0.049204111
3.4262953 -3.0699236 0.40248519 62 10 -0.049201805
1.6095108 -1.4421043 -0.34227866 2 3 -0.049199503
3.4250386 -3.0698757 0.56474262 48 11 -0.049197197
2.1593432 -1.9361075 -0.35610226 1 4 -0.049194895
3.4116204 -3.0599973 0.72585601 54 12 -0.049192589
3.410805 -3.0603399 -0.40091643 16 5 -0.049190287
3.2498713 -2.9159424 0.84871852 28 13 -0.049187981
3.1131833 -2.7952616 0.96593982 39 14 -0.049183372
3.4142644 -3.0666728 -0.080106542 52 7 -0.04918107
3.1125391 -2.7966461 1.1212041 40 15 -0.049178764
0.85537583 -0.77072465 -0.3085123 5 0 -0.049158335
3.425246 -3.0873542 0.080490492 57 8 -0.049156033
1.0159944 -0.91609073 -0.31583127 4 1 -0.049153727
3.4259288 -3.0901377 0.24179214 55 9 -0.049151424
1.2639433 -1.1400584 -0.33086282 3 2 -0.049149118
3.430351 -3.0952122 0.4042283 68 10 -0.049146816
1.5924835 -1.4374053 -0.33977571 2 3 -0.04914451
3.4314439 -3.098372 0.56766742 48 11 -0.049142208
2.1581249 -1.9493313 -0.35707721 1 4 -0.049139902
3.4209015 -3.0910215 0.73023617 58 12 -0.0491376
3.4148843 -3.0855846 -0.40265954 16 5 -0.049135294
3.2479 -2.9357328 0.85100812 28 13 -0.049132992
3.1144795 -2.8171113 0.96953911 39 14 -0.049128383
3.4059675 -3.0818498 -0.080176361 52 7 -0.049126077
3.1122935 -2.8171101 1.1248276 42 15 -0.049123775
0.8569724 -0.77760029 -0.31006524 5 0 -0.04910304
3.4277742 -3.111388 0.080804639 63 8 -0.049100734
1.0171188 -0.92356157 -0.31718099 4 1 -0.049098432
3.4284265 -3.1141634 0.24273418 60 9 -0.049096126
1.2497833 -1.1352233 -0.32819149 3 2 -0.049093824
3.4313223 -3.1178868 0.40562281 65 10 -0.049091518
1.5903797 -1.4456128 -0.34040144 2 3 -0.049089216
3.4323575 -3.1210155 0.56961739 48 11 -0.04908691
2.1836138 -1.9862393 -0.36243945 1 4 -0.049084608
3.4247017 -3.1162386 0.73336488 56 12 -0.049082302
3.4144087 -3.1068726 -0.4038797 16 5 -0.049079999
3.2434409 -2.9523385 0.85253465 28 13 -0.049077693
3.1190333 -2.8410885 0.97403812 37 14 -0.049073085
3.4217947 -3.1179631 -0.080804639 50 7 -0.049070783
3.1167183 -2.8409708 1.130004 38 15 -0.049068477
0.85995728 -0.78579956 -0.31213579 5 0 -0.049047742
3.4331288 -3.1381752 0.081188597 61 8 -0.04904544
1.0124506 -0.92579138 -0.3167311 4 1 -0.049043134
3.4249039 -3.1328523 0.24325755 58 9 -0.049040832
1.261748 -1.154155 -0.3323893 3 2 -0.049038526
3.4380565 -3.1459856 0.40771458 61 10 -0.049036223
1.5853239 -1.4511553 -0.34040144 2 3 -0.049033917
3.4302263 -3.141021 0.57107979 46 11 -0.049031615
2.1503189 -1.9697139 -0.35805216 1 4 -0.049029309
3.4327359 -3.1455228 0.73743218 52 12 -0.049027007
3.4270456 -3.1403084 -0.40666869 12 5 -0.049024701
3.2504818 -2.9795613 0.85711402 25 13 -0.049022399
3.1191497 -2.8611801 0.9771874 35 14 -0.049017791
3.4226773 -3.1407044 -0.081083886 50 7 -0.049015488
3.119591 -2.8635907 1.1346627 38 15 -0.049013183
0.85720909 -0.78879654 -0.31213579 5 0 -0.048992448
3.4339237 -3.160974 0.081467837 60 8 -0.048990142
1.0077791 -0.92799973 -0.31628117 4 1 -0.048987839
3.4271686 -3.1569667 0.2441996 54 9 -0.048985533
1.2504917 -1.1519015 -0.3304812 3 2 -0.048983231
3.4446361 -3.1741688 0.40980628 59 10 -0.048980925
1.5860585 -1.4620355 -0.3416529 2 3 -0.048978623
3.4338343 -3.1664329 0.5735172 45 11 -0.048976317
2.1521847 -1.9852835 -0.35951459 1 4 -0.048974015
3.4275422 -3.1628449 0.73868364 50 12 -0.048971713
3.4204557 -3.1563056 -0.40719163 12 5 -0.048969407
3.2530448 -3.0028749 0.86054862 31 13 -0.048967104
3.1234579 -2.8852732 0.98168641 37 14 -0.048962496
3.420505 -3.1607752 -0.081293307 49 7 -0.04896019
3.1237621 -2.8875761 1.1398392 35 15 -0.048957888
0.84169745 -0.77996629 -0.30747706 5 0 -0.048937149
3.4404669 -3.189255 0.081886694 58 8 -0.048934847
1.0031048 -0.93018687 -0.31583127 3 1 -0.048932541
3.4278419 -3.1797769 0.24503697 54 9 -0.048930239
1.2464632 -1.1562595 -0.3304812 3 2 -0.048927933
3.4481394 -3.1997259 0.41154939 59 10 -0.048925631
1.5867364 -1.4729389 -0.34290439 2 3 -0.048923329
3.4402163 -3.1946087 0.576442 46 11 -0.048921023
2.1539683 -2.0008903 -0.36097702 1 4 -0.04891872
3.4266102 -3.1842024 0.74087369 46 12 -0.048916414
3.4219978 -3.1810298 -0.4087604 10 5 -0.048914112
3.2626741 -3.0329251 0.86589122 31 13 -0.048911806
3.1247821 -2.9067769 0.98528558 35 14 -0.048907198
3.4211626 -3.183594 -0.081572548 47 7 -0.048904896
3.1235614 -2.9076762 1.1434625 38 15 -0.04890259
0.83883309 -0.78304601 -0.30747706 5 0 -0.048881855
3.4380841 -3.2094321 0.082096115 54 8 -0.048879549
1.0098218 -0.94299293 -0.3189806 4 1 -0.048877247
3.429857 -3.203994 0.24597903 49 9 -0.048874944
1.2307414 -1.1500968 -0.32742825 3 2 -0.048872638
3.4422107 -3.2177846 0.41224664 57 10 -0.048870336
1.5784415 -1.4760462 -0.34227866 2 3 -0.04886803
3.4464431 -3.2228682 0.57936692 48 11 -0.048865728
2.1411719 -2.0029726 -0.36000207 1 4 -0.048863422
3.4313402 -3.2109914 0.74431533 52 12 -0.04886112
3.407964 -3.1902323 -0.4084118 10 5 -0.048858814
3.2544022 -3.0475471 0.86665452 32 13 -0.048856512
3.1283267 -2.9315355 0.9897846 35 14 -0.048851904
3.431916 -3.2160273 -0.082096115 45 7 -0.048849598
3.1288962 -2.933095 1.1491566 35 15 -0.048847295
0.84876275 -0.79787791 -0.31213579 5 0 -0.04882656
3.4321251 -3.2274919 0.082235746 56 8 -0.048824254
1.0006812 -0.94134682 -0.31718099 4 1 -0.048821952
3.4433827 -3.2392111 0.24775843 54 9 -0.048819646
1.233868 -1.161113 -0.32933635 3 2 -0.048817344
3.4483664 -3.2461689 0.41433838 58 10 -0.048815038
1.564651 -1.4734216 -0.34040144 2 3 -0.048812736
3.440387 -3.2409234 0.58034182 48 11 -0.04881043
2.1424844 -2.018975 -0.3614645 1 4 -0.048808128
3.4373624 -3.2392063 0.7480697 52 12 -0.048805822
3.4055061 -3.2103088 -0.40945768 8 5 -0.048803519
3.2537425 -3.0683169 0.86932582 30 13 -0.048801214
3.1308303 -2.9544747 0.99383378 33 14 -0.048796605
3.4352129 -3.2417119 -0.082445174 50 7 -0.048794303
3.1298773 -2.9546082 1.1532978 35 15 -0.048791997
0.84877831 -0.80349207 -0.31317106 5 0 -0.048771262
3.4388294 -3.255352 0.082654595 52 8 -0.04876896
0.99472404 -0.94198006 -0.31628117 4 1 -0.048766654
3.4422045 -3.2608259 0.24849114 61 9 -0.048764352
1.2369325 -1.172165 -0.33124444 3 2 -0.048762046
3.4543655 -3.2746344 0.41643015 60 10 -0.048759744
1.5740923 -1.492192 -0.34353012 2 3 -0.048757438
3.4411445 -3.263242 0.58229178 48 11 -0.048755135
2.1328974 -2.0233362 -0.36097702 1 4 -0.048752829
3.4417965 -3.2661428 0.75151128 54 12 -0.048750527
3.4173987 -3.2441237 -0.41224664 6 5 -0.048748221
3.2577884 -3.0926065 0.873142 30 13 -0.048745919
3.1309059 -2.9742358 0.99698305 35 14 -0.048741311
3.4412711 -3.2702134 -0.082864024 48 7 -0.048739009
3.1335466 -2.9788258 1.1584741 33 15 -0.048736703
0.84051502 -0.80097121 -0.31110048 5 0 -0.048715968
3.4477091 -3.286653 0.083143272 58 8 -0.048713662
0.99707103 -0.95082605 -0.31808078 4 1 -0.04871136
3.4371541 -3.2777359 0.24890982 54 9 -0.048709054
1.2131511 -1.1572886 -0.32590178 3 2 -0.048706751
3.460784 -3.3025777 0.41852185 65 10 -0.048704445
1.5631585 -1.4922216 -0.34227866 2 3 -0.048702143
3.448396 -3.2930565 0.58546036 38 11 -0.048699837
2.12008 -2.0252845 -0.36000207 1 4 -0.048697535
3.4423735 -3.2884543 0.75401419 56 12 -0.048695229
3.422467 -3.2705805 -0.4141641 4 5 -0.048692927
3.264003 -3.120239 0.87772143 30 13 -0.048690625
3.1303618 -2.9945762 1.0001323 35 14 -0.048686016
3.4318523 -3.282989 -0.08289893 37 7 -0.04868371
3.1348166 -2.9998856 1.1626152 33 15 -0.048681408
0.82795697 -0.79453719 -0.30747706 5 0 -0.048660669
3.4454482 -3.3063755 0.083352692 18 8 -0.048658367
0.99672419 -0.95682639 -0.3189806 4 1 -0.048656061
3.4386568 -3.3021646 0.24985188 28 9 -0.048653759
1.2331728 -1.1846377 -0.3323893 3 2 -0.048651453
3.4463618 -3.3118773 0.41817325 13 10 -0.048649151
1.5582016 -1.4973971 -0.34227866 2 3 -0.048646845
2.1190755 -2.0378075 -0.36097702 1 4 -0.04864224
